# .PCD v0.7 - Point Cloud Data file format
VERSION 0.7
FIELDS x y z
SIZE 4 4 4
TYPE F F F
COUNT 1 1 1
WIDTH 1358
HEIGHT 1
VIEWPOINT 0 0 0 1 0 0 0
POINTS 1358
DATA ascii
1.678586 0.46046898 0.46639192
0.4845717 0.13220027 -0.1345859
0.51318866 0.13991129 0.0092846798
0.62234926 0.16955519 -0.1489176
0.50104952 0.13641389 0.027214697
0.77855855 0.21196748 -0.15684499
0.4979291 0.135471 0.045146674
0.60997778 0.16584162 -0.10011806
0.52105594 0.14156777 0.06629692
0.53640652 0.1456379 -0.068246834
0.48233229 0.13086601 0.07915584
0.52878946 0.14347073 -0.047935657
0.50402802 0.13665803 0.10151038
0.50507128 0.13684627 -0.027424041
0.50223011 0.13598238 0.12012386
0.51538664 0.13944806 -0.0093195848
1.6839921 0.45532203 0.46742719
0.52236474 0.1404559 -0.14493866
0.50017965 0.13439707 0.0090403464
0.61167407 0.16424088 -0.14621818
0.49190101 0.13198853 0.026691338
0.77553785 0.20809492 -0.15608175
0.49842227 0.13364509 0.045146674
0.59531701 0.15951471 -0.097615108
0.51965374 0.1391436 0.066053182
0.60980672 0.16316909 -0.077508904
0.49423563 0.13224515 0.081033051
0.54086041 0.14461963 -0.048981529
0.48555836 0.12974171 0.097694203
0.50556946 0.13499418 -0.027424041
0.50837368 0.13564789 0.12147357
0.50816554 0.13549735 -0.0091799656
1.6874379 0.44993874 0.46794483
0.50791323 0.13467075 -0.14079756
0.50064576 0.1326503 0.0090403464
0.61601132 0.16310231 -0.14711799
0.50201285 0.132825 0.027214697
0.78764719 0.20839953 -0.15837146
0.50081193 0.13241374 0.045320988
0.57295209 0.15138048 -0.093860678
0.49902377 0.13175459 0.063372061
0.55662906 0.1468599 -0.070684217
0.4832564 0.12741119 0.07915584
0.54136193 0.14273079 -0.048981529
0.48790675 0.12854619 0.098075822
0.52342057 0.13780513 -0.028366089
0.49942106 0.13139339 0.11922406
0.51056939 0.13423114 -0.0092148706
1.6890757 0.44375095 0.46794483
0.54949921 0.143646 -0.1521856
0.50110573 0.13090192 0.0090403464
0.61280578 0.15996663 -0.14621818
0.48508009 0.12653473 0.026272651
0.77317238 0.20168453 -0.15531853
0.51476687 0.13418268 0.046541166
0.56965387 0.14838372 -0.093234941
0.50140172 0.13051191 0.063615799
0.57634997 0.1499131 -0.073121607
0.49514684 0.12879154 0.081033051
0.54571348 0.14184263 -0.049330149
0.48455209 0.12585519 0.097312585
0.52776486 0.13698074 -0.028575432
0.49610403 0.1286708 0.11832426
0.51877779 0.13445489 -0.0093544899
1.7148488 0.44444811 0.47467414
0.51258248 0.13208573 -0.14183284
0.49768656 0.12815462 0.0089705372
0.60203683 0.15491284 -0.14351878
0.48551884 0.12484071 0.026272651
0.7358436 0.18920633 -0.14768617
0.50751328 0.13040169 0.045843922
0.56251508 0.14442933 -0.091983467
0.4999314 0.12826757 0.063372061
0.55764079 0.14297034 -0.070684217
0.48030695 0.12305383 0.078530103
0.55199546 0.1414203 -0.049853086
0.49259612 0.12611069 0.098839059
0.50502044 0.12919755 -0.02731937
0.48144594 0.12307705 0.11472504
0.50374413 0.1286837 -0.0090752514
1.72021 0.43911555 0.47570941
0.5279963 0.13419208 -0.14597394
0.50779963 0.12896468 0.0091450606
0.61010271 0.154833 -0.14531837
0.72504884 0.18386957 -0.14539646
0.49635488 0.12578146 0.04479805
0.58597016 0.14838207 -0.095737889
0.49265626 0.1246612 0.062397104
0.53886658 0.13625413 -0.068246834
0.47877607 0.12106006 0.078217231
0.54087126 0.13666061 -0.048807215
0.49110809 0.12399588 0.098457441
0.50544608 0.12752213 -0.02731937
0.49696836 0.12529097 0.11832426
0.50610721 0.12750103 -0.0091101564
1.7178342 0.43276531 0.47467414
0.53970534 0.13516413 -0.14907977
0.48496825 0.12136579 0.0087262029
0.59173423 0.14797477 -0.14081936
0.49217039 0.12298562 0.026586665
0.74473315 0.18609707 -0.14921263
0.48712572 0.12163471 0.043926496
0.57498485 0.14346641 -0.093860678
0.50079292 0.12486169 0.063372061
0.56245345 0.14013113 -0.071171694
0.49263462 0.12264497 0.080407314
0.53167814 0.13236514 -0.047935657
0.48391718 0.12038501 0.096930973
0.50976467 0.12672067 -0.027528713
0.49172887 0.12214608 0.11697455
0.50654918 0.12573361 -0.0091101564
1.725034 0.42786142 0.47622705
0.54019713 0.1331851 -0.14907977
0.58091915 0.14300998 -0.13811995
0.49455729 0.12165798 0.026691338
0.73397171 0.18055242 -0.14692293
0.48563346 0.1193729 0.043752182
0.5793435 0.14230041 -0.094486415
0.57067508 0.13996004 -0.072146654
0.48154861 0.11810146 0.078530103
0.54183537 0.13278674 -0.048807215
0.48054135 0.11767662 0.096167736
0.50052559 0.12247784 -0.027005354
0.49785218 0.12173156 0.11832426
0.5167194 0.12624927 -0.0092846798
1.7302704 0.42275438 0.47726232
0.52939504 0.12856327 -0.14597394
0.4955408 0.1202502 0.0089007271
0.58330864 0.14144054 -0.13856985
0.48527348 0.11757933 0.026167978
0.71933311 0.17429081 -0.14386998
0.49766585 0.12048998 0.04479805
0.57215673 0.13841929 -0.093234941
0.49395552 0.11940917 0.062397104
0.53642744 0.12957726 -0.067759357
0.5461691 0.13182953 -0.049155839
0.48094919 0.11599849 0.096167736
0.49318343 0.11885815 -0.026586665
0.48311746 0.11634301 0.11472504
0.5171569 0.12444482 -0.0092846798
1.7467614 0.42032775 0.48140341
0.51100922 0.12239951 -0.14079756
0.49591613 0.11869282 0.0089007271
0.56858778 0.13598117 -0.13497064
0.69696325 0.16655435 -0.13929057
0.48835239 0.1166122 0.043926496
0.58411741 0.13937189 -0.095112152
0.50012112 0.1192379 0.063128322
0.53683186 0.12789139 -0.067759357
0.55239522 0.13149723 -0.049678773
0.4832212 0.11494129 0.096549354
0.50327003 0.1196174 -0.027110025
0.50587136 0.12004915 -0.0090752514
0.53399658 0.12593625 -0.14700922
0.4963274 0.11696102 0.0089007271
0.58044016 0.13667551 -0.13767004
0.48604262 0.11435831 0.026167978
0.68607396 0.1614226 -0.13700086
0.48487744 0.11399486 0.043577872
0.56921613 0.13371809 -0.092609204
0.49087146 0.11522325 0.061909627
0.53340971 0.12511012 -0.067271881
0.5256933 0.12320346 -0.047238413
0.485531 0.11370148 0.096930973
0.49979505 0.11694982 -0.026900681
0.50044554 0.1169178 -0.0089705372
0.53051841 0.12384599 0.14597394
0.53819656 0.12494524 -0.1480445
0.58091372 0.13464856 -0.13767004
0.49422184 0.11446358 0.026586665
0.67133224 0.15548301 -0.13394791
0.56583023 0.13084026 -0.091983467
0.5086779 0.11753107 0.064103276
0.53577745 0.12369397 -0.067515619
0.51641315 0.11912844 -0.046366856
0.50993174 0.11744583 -0.027424041
0.48047221 0.11057249 0.11382523
0.50279945 0.11561833 -0.0090054413
0.53469163 0.12295191 0.14700922
0.5160296 0.11790222 -0.14183284
0.56998056 0.13001959 -0.13497064
0.49267107 0.11229388 0.026481993
0.68335587 0.15575643 -0.13623762
0.57013577 0.12974098 -0.092609204
0.49553528 0.11267381 0.062397104
0.54007745 0.12270258 -0.068003096
0.48737001 0.1106383 0.07915584
0.52071172 0.11820724 -0.046715479
0.49475574 0.11213335 -0.026586665
0.47705403 0.10803384 0.11292543
0.50515038 0.11430386 -0.0090403464
0.52381223 0.11852661 0.14390339
0.54659492 0.1228798 -0.15011504
0.56092376 0.12589537 -0.13272113
0.48719442 0.10934734 0.026167978
0.66857004 0.14993325 -0.13318467
0.48798877 0.10934673 0.043752182
0.56287456 0.12602369 -0.09135773
0.48430231 0.10834315 0.06093467
0.53469062 0.11951751 -0.067271881
0.52889913 0.11812604 -0.047412723
0.49124539 0.10953632 -0.026377322
0.5035944 0.11210534 -0.0090054413
0.52799416 0.11753699 0.14493866
0.52815777 0.11679966 -0.14493866
0.49400687 0.10915691 0.008830918
0.56897146 0.12561712 -0.13452072
0.63841474 0.14083189 -0.12707879
0.49225888 0.10850037 0.044100806
0.56716937 0.12490784 -0.091983467
0.48855495 0.10750517 0.061422151
0.53510457 0.11765037 -0.067271881
0.54293013 0.1192716 -0.048632905
0.49357563 0.10824875 -0.026481993
0.5472936 0.11972962 0.15011504
0.54370528 0.11804999 -0.14907977
0.49442235 0.10725926 0.008830918
0.57325864 0.12425712 -0.13542053
0.4899348 0.1061962 0.026272651
0.63127571 0.1367173 -0.12555231
0.49072453 0.10618805 0.043926496
0.56378323 0.12189426 -0.09135773
0.48896417 0.10562847 0.061422151
0.52779073 0.11391956 -0.06629692
0.5258556 0.11340582 -0.047064099
0.49398765 0.10635276 -0.026481993
0.52884156 0.11366346 0.14493866
0.5365569 0.11453817 -0.14700922
0.57750076 0.12306765 -0.13632034
0.63558948 0.13533062 -0.12631555
0.55261207 0.11746132 -0.089480512
0.50292242 0.10680772 0.063128322
0.52818519 0.11207654 -0.06629692
0.48503861 0.10283273 0.078530103
0.52040106 0.1103299 -0.046541166
0.50217175 0.10628197 -0.026900681
0.5235647 0.11061873 0.14338575
0.52935189 0.1112625 -0.14493866
0.56262684 0.11805138 -0.13272113
0.61679667 0.12930501 -0.12249938
0.48946792 0.10252268 0.043752182
0.55877882 0.11693855 -0.090419121
0.5343641 0.11163447 -0.067028143
0.5207451 0.10869446 -0.046541166
0.50054795 0.10429642 -0.026796009
0.49923715 0.10384148 -0.0089007271
0.50690573 0.10534424 0.13872701
0.53162897 0.1098048 -0.1454563
0.56685269 0.11687376 -0.13362093
0.48902857 0.10082797 0.026167978
0.61724424 0.12715119 -0.12249938
0.56692314 0.11657886 -0.091670595
0.52308321 0.10737357 -0.065565705
0.52112132 0.10687606 -0.046541166
0.4969956 0.10174738 -0.026586665
0.48980057 0.10009626 -0.0087262029
0.50916314 0.10396064 0.13924465
0.54719388 0.11083066 -0.14959741
0.5634771 0.11392397 -0.13272113
0.58308899 0.11778319 -0.11563025
0.55962098 0.11283939 -0.090419121
0.49233729 0.099183194 0.061665889
0.51570737 0.10379753 -0.064590752
0.52543443 0.10565989 -0.046889789
0.49150801 0.098659121 -0.026272651
0.4901813 0.09821482 -0.0087262029
0.51902992 0.10390083 0.14183284
0.52484065 0.1043973 -0.14338575
0.49229631 0.097834505 0.0087611079
0.56387132 0.11195638 -0.13272113
0.58349657 0.11574711 -0.11563025
0.55032271 0.10896683 -0.088854775
0.52775109 0.1043061 -0.066053182
0.51798147 0.10228127 -0.046192545
0.49184939 0.096942835 -0.026272651
0.49095571 0.096499667 0.13406827
0.53847414 0.10515651 -0.14700922
0.56617141 0.11036026 -0.13317102
0.57618886 0.11220851 -0.11410378
0.56233418 0.10930669 -0.090731993
0.4969151 0.096500508 0.062153365
0.52616322 0.10208518 -0.065809444
0.50464344 0.097818561 -0.044972364
0.50002837 0.096742906 -0.026691338
0.49886024 0.09633626 0.13613881
0.54452986 0.1043672 -0.14856213
0.56272513 0.10765096 -0.13227122
0.5002299 0.095695436 0.026691338
0.57272029 0.10945944 -0.11334054
0.5530104 0.10549238 -0.089167647
0.54211682 0.10321821 -0.067759357
0.5147683 0.097917989 -0.045843922
0.50680256 0.095944569 0.13820937
0.54868799 0.10317984 -0.14959741
0.55926692 0.10496707 -0.13137141
0.5808174 0.10890688 -0.11486702
0.4895815 0.091711126 0.043577872
0.56114191 0.10501486 -0.090419121
0.52100903 0.097315967 -0.065078229
0.51706553 0.096485995 -0.046018232
0.4967646 0.092518345 -0.026481993
0.49347082 0.091726691 -0.0087611079
0.50711793 0.094263427 0.13820937
0.54904485 0.10126393 -0.14959741
0.49558088 0.091313794 0.008796013
0.5557968 0.10230865 -0.13047162
0.56767786 0.10439324 -0.11219569
0.54984754 0.10091591 -0.08854191
0.52720338 0.096569709 -0.065809444
0.50955981 0.093245961 -0.045320988
0.51126122 0.093096279 0.13924465
0.53985578 0.097816445 -0.14700922
0.56186843 0.10160236 -0.13182132
0.49136156 0.088764079 0.026167978
0.56800306 0.10260931 -0.11219569
0.56571412 0.10199191 -0.091044858
0.53727275 0.096670628 -0.067028143
0.50004542 0.089882277 -0.04444943
0.50392872 0.090217158 0.1371741
0.53638971 0.095255822 -0.14597394
0.56605732 0.10032059 -0.13272113
0.56642455 0.10028372 -0.11181407
0.54466897 0.096235886 -0.087603301
0.51219279 0.090313405 -0.063859537
0.49839395 0.087790608 -0.044275116
0.49437407 0.086726718 -0.0087611079
0.50806171 0.089036502 0.13820937
0.53481573 0.093051746 -0.1454563
0.556804 0.096677221 -0.13047162
0.57450867 0.099647976 -0.11334054
0.54305518 0.093997143 -0.087290429
0.54380292 0.093931079 -0.067759357
0.49280724 0.085034013 -0.043752182
0.51787388 0.088987008 0.14079756
0.54465926 0.092806824 -0.1480445
0.55713803 0.09473303 -0.13047162
0.57098192 0.096984439 -0.1125773
0.54337996 0.092100956 -0.087290429
0.53434104 0.090377018 -0.066540658
0.5048883 0.085304834 -0.04479805
0.5143863 0.086447954 0.13976228
0.55260199 0.092176445 -0.15011504
0.57284367 0.095347337 -0.13407083
0.56938034 0.094668746 -0.11219569
0.55149311 0.091496885 -0.08854191
0.49742857 0.082437962 0.061909627
0.51702732 0.08559332 -0.064347014
0.50714868 0.083866984 -0.044972364
0.5089516 0.083800137 0.13820937
0.54529393 0.089002155 -0.1480445
0.55586243 0.090527944 -0.13002171
0.55808061 0.090789221 -0.10990598
0.54790944 0.088938244 -0.087916173
0.51340383 0.083153278 -0.063859537
0.48446009 0.077944867 0.13148007
0.53990823 0.085996106 -0.14649157
0.56775349 0.090228073 -0.13272113
0.56424206 0.089569069 -0.11105084
0.53654057 0.084979676 -0.086038955
0.4940981 0.078169055 0.061422151
0.52744466 0.083350308 -0.065565705
0.4939737 0.077972636 -0.043752182
0.47710878 0.074969202 0.12940952
0.54974937 0.085597008 -0.14907977
0.56806499 0.08824569 -0.13272113
0.56261122 0.087297924 -0.11066922
0.54073817 0.083710685 -0.086664692
0.51988506 0.080296651 -0.064590752
0.50211924 0.077462979 -0.04444943
0.53476578 0.081353128 -0.14493866
0.5529561 0.083922923 -0.1291219
0.56873578 0.086216278 -0.11181407
0.53516757 0.080936484 -0.08572609
0.51231068 0.077296793 -0.063615799
0.50238657 0.075709783 -0.04444943
0.5446009 0.080905348 -0.14752686
0.5667395 0.083992049 -0.13227122
0.55349648 0.081930682 -0.10876112
0.53544682 0.079067908 -0.08572609
0.51257735 0.075508028 -0.063615799
0.50264782 0.073955663 -0.04444943
0.47787988 0.069885507 0.12940952
0.53720534 0.078082539 -0.1454563
0.56121486 0.081372283 -0.13092151
0.54209322 0.078503177 -0.10647142
0.52787226 0.076255649 -0.084474608
0.51674163 0.074463613 -0.064103276
0.52791101 0.074850872 -0.14286812
0.563425 0.079685673 -0.13137141
0.55208373 0.077983387 -0.10837951
0.52422309 0.073861368 -0.083848871
0.50520378 0.071001761 -0.062640846
0.53966403 0.074500598 -0.14597394
0.56564379 0.077885903 -0.13182132
0.56403559 0.077564158 -0.11066922
0.51861912 0.071134202 -0.082910269
0.50349385 0.068880558 -0.062397104
0.53609157 0.072101355 -0.14493866
0.5601179 0.075133719 -0.13047162
0.56430286 0.075594828 -0.11066922
0.51690632 0.069061853 -0.082597397
0.49769476 0.066229843 -0.043926496
0.55166399 0.072236165 -0.14907977
0.56810611 0.074187443 -0.13227122
0.55482948 0.072355196 -0.10876112
0.52693862 0.068530902 -0.084161744
0.50593108 0.065619186 -0.062640846
0.4979229 0.064492166 -0.043926496
0.53849822 0.068601139 -0.1454563
0.56449521 0.071712747 -0.13137141
0.55313098 0.070170954 -0.10837951
0.52521485 0.066443205 -0.083848871
0.50418758 0.063604303 -0.062397104
0.49419147 0.062255651 -0.043577872
0.53682882 0.066389874 -0.14493866
0.57055652 0.070358798 -0.13272113
0.55728155 0.068623044 -0.10914274
0.51957291 0.063795529 -0.082910269
0.51032841 0.062479638 -0.063128322
0.5351392 0.064285174 -0.14442103
0.55531937 0.066512741 -0.1291219
0.55361897 0.066211075 -0.10837951
0.50410062 0.060110357 -0.080407314
0.51842827 0.061635297 -0.064103276
0.49462429 0.058717728 -0.043577872
0.53727919 0.062640518 -0.14493866
0.55167675 0.064123921 -0.12822211
0.5655477 0.065636165 -0.11066922
0.51019418 0.059031483 -0.081345923
0.5008921 0.057778016 -0.061909627
0.5374946 0.060764678 -0.14493866
0.55577016 0.062634289 -0.1291219
0.54626393 0.061466407 -0.10685304
0.51628637 0.057910793 -0.082284525
0.50503635 0.056470398 -0.062397104
0.51086289 0.057031617 -0.044972364
0.53193212 0.058350001 -0.14338575
0.56372356 0.061638206 -0.13092151
0.53475481 0.058376282 -0.10456333
0.52040315 0.056625772 -0.082910269
0.49930027 0.054153197 -0.061665889
0.53021151 0.056288909 -0.14286812
0.56781113 0.060080174 -0.13182132
0.54862207 0.057952952 -0.10723466
0.50684595 0.053361099 -0.080720186
0.505409 0.053031445 -0.062397104
0.52848303 0.054240543 -0.14235048
0.56220156 0.057502918 -0.13047162
0.54882103 0.056037549 -0.10723466
0.50702918 0.051591553 -0.080720186
0.50164109 0.050866392 -0.061909627
0.54981589 0.054491282 -0.1480445
0.5565809 0.054965567 -0.1291219
0.55487466 0.054699276 -0.10837951
0.50130838 0.049242057 -0.079781577
0.49983996 0.04892166 -0.061665889
0.54614747 0.052299421 -0.14700922
0.55676013 0.053119574 -0.1291219
0.54918975 0.052300572 -0.10723466
0.51916784 0.049258661 -0.082597397
0.54247934 0.050037812 -0.14597394
0.56082332 0.051532421 -0.13002171
0.54154879 0.049666025 -0.10570818
0.51146787 0.046727244 -0.081345923
0.49620754 0.045158423 -0.061178409
0.53881043 0.047708418 -0.14493866
0.5629496 0.049647756 -0.13047162
0.54563856 0.048025083 -0.10647142
0.5214749 0.045714851 -0.082910269
0.53704876 0.045663659 -0.14442103
0.55729413 0.047189124 -0.1291219
0.54384661 0.045954853 -0.1060898
0.49997866 0.042072259 -0.079468705
0.49651799 0.041606512 -0.061178409
0.53913039 0.043945678 -0.14493866
0.54968601 0.044612948 -0.1273223
0.54400367 0.044056192 -0.1060898
0.51587433 0.041596886 -0.08197166
0.53735447 0.041913267 -0.14442103
0.55372417 0.042995635 -0.12822211
0.53240985 0.041247133 -0.1038001
0.51995546 0.04009968 -0.082597397
0.53171796 0.039606787 -0.14286812
0.54804069 0.040630277 -0.12687239
0.53842425 0.039822858 -0.10494494
0.51418215 0.037849404 -0.081658788
0.51836395 0.036793064 -0.13924465
0.55012304 0.038854308 -0.1273223
0.53855997 0.037943162 -0.10494494
0.5024879 0.035225507 -0.079781577
0.52234417 0.035243511 -0.14027992
0.53858912 0.036150735 -0.12462288
0.53868914 0.036063004 -0.10494494
0.49472374 0.03294624 -0.078530103
0.52439195 0.033543296 -0.14079756
0.54454648 0.034641646 -0.12597258
0.54468971 0.034555309 -0.1060898
0.50272155 0.031716648 -0.079781577
0.52450025 0.031804167 -0.14079756
0.54660356 0.032952946 -0.12642249
0.52912354 0.03180645 -0.10303686
0.50676769 0.030285072 -0.080407314
0.53232294 0.030413905 -0.14286812
0.54671526 0.031044742 -0.12642249
0.52727127 0.029848309 -0.10265524
0.50489807 0.028404981 -0.080094449
0.51313508 0.027520943 -0.13769174
0.5565502 0.029654598 -0.128672
0.52737224 0.028007608 -0.10265524
0.49513096 0.026122024 -0.078530103
0.53252226 0.026696879 -0.14286812
0.54302603 0.027033437 -0.12552269
0.53334934 0.026458384 -0.1038001
0.4956806 0.024242826 -0.06093467
0.51910394 0.02420792 -0.13924465
0.53338379 0.02468726 -0.12327318
0.53539962 0.024686916 -0.10418171
0.53076565 0.022895295 -0.14235048
0.53930759 0.023075163 -0.12462288
0.52175218 0.022232799 -0.10151038
0.51347286 0.02026416 -0.13769174
0.54523027 0.021326849 -0.12597258
0.5120213 0.01993837 -0.099602297
0.49347684 0.019043723 -0.078217231
0.52898526 0.01902722 -0.14183284
0.55309141 0.019700989 -0.1277722
0.5179739 0.018359592 -0.10074715
0.52131921 0.017111765 -0.13976228
0.53756887 0.017457299 -0.12417299
0.51802897 0.016732242 -0.10074715
0.49359229 0.015770467 -0.078217231
0.52137572 0.015291918 -0.13976228
0.5395745 0.015637178 -0.12462288
0.52004671 0.014980411 -0.10112876
0.49759349 0.014159791 -0.078842968
0.51756585 0.01328176 -0.13872701
0.53183568 0.013462186 -0.12282328
0.51617283 0.012975571 -0.10036553
0.50215805 0.011132498 -0.1345859
0.54356909 0.01186072 -0.12552269
0.51425219 0.011131226 -0.099983916
0.50953168 0.010851106 -0.080720186
0.51378292 0.0095960237 -0.13769174
0.53776199 0.0098561058 -0.12417299
0.52017671 0.0094429851 -0.10112876
0.53699285 0.0081545217 -0.14390339
0.53194749 0.0078921793 -0.12282328
0.51824343 0.0075983903 -0.10074715
0.51770085 0.0060541173 -0.13872701
0.52417737 0.0059468588 -0.12102367
0.52415621 0.0058551244 -0.101892
0.50171632 0.0054293047 -0.079468705
0.51385528 0.0042152735 -0.13769174
0.535887 0.0042089331 -0.12372308
0.50846791 0.0039048297 -0.098839059
0.49383089 0.0036200343 -0.078217231
0.52932149 0.0024943871 -0.14183284
0.53784716 0.0023468158 -0.12417299
0.50062549 0.0020970274 -0.097312585
0.49779126 0.0019113906 -0.078842968
0.52159953 0.00063725439 -0.13976228
0.53980082 0.0004710652 -0.12462288
0.5065195 0.00035361739 -0.098457441
0.52159858 -0.0011834718 -0.13976228
0.52810675 -0.0013825834 -0.12192347
0.51240736 -0.0014309151 -0.099602297
0.52352309 -0.00301531 -0.14027992
0.51056039 -0.0031188747 -0.11787435
0.51828891 -0.0032565482 -0.10074715
0.54089618 -0.0049091526 -0.14493866
0.52029049 -0.0049037677 -0.12012386
0.50256997 -0.0048244735 -0.097694203
0.49579501 -0.0049325181 -0.078530103
0.53894407 -0.0067729275 -0.14442103
0.53585881 -0.0069212355 -0.12372308
0.49469772 -0.0064759478 -0.096167736
0.49577478 -0.0066631357 -0.078530103
0.53505391 -0.0085921148 -0.14338575
0.53193444 -0.0087277507 -0.12282328
0.50448704 -0.0083654784 -0.098075822
0.54467809 -0.010648553 -0.14597394
0.52410734 -0.010429411 -0.12102367
0.50838047 -0.01020522 -0.098839059
0.54463762 -0.01254977 -0.14597394
0.52406776 -0.012258823 -0.12102367
0.52208072 -0.012303513 -0.10151038
0.55038399 -0.014604566 -0.14752686
0.5259698 -0.014140459 -0.12147357
0.5063343 -0.013701003 -0.098457441
0.54260576 -0.016293736 -0.1454563
0.53370857 -0.016213035 -0.12327318
0.50432104 -0.015408401 -0.098075822
0.49953184 -0.015436612 -0.07915584
0.54447633 -0.01825241 -0.14597394
0.53364873 -0.018075928 -0.12327318
0.51211268 -0.017435934 -0.099602297
0.53862119 -0.019844476 -0.14442103
0.51800674 -0.019266041 -0.11967396
0.51009011 -0.019060753 -0.099220678
0.5539909 -0.022347419 -0.14856213
0.51598918 -0.020994879 -0.11922406
0.50805885 -0.020761026 -0.098839059
0.54811531 -0.024122927 -0.14700922
0.51980239 -0.023058657 -0.12012386
0.49425021 -0.022011584 -0.096167736
0.53837937 -0.025577677 -0.14442103
0.52166528 -0.024966123 -0.12057377
0.49809232 -0.02392509 -0.096930973
0.53828681 -0.027456816 -0.14442103
0.52935964 -0.027186727 -0.12237337
0.53818768 -0.029335622 -0.14442103
0.52731574 -0.028927628 -0.12192347
0.49595287 -0.027293939 -0.096549354
0.53615338 -0.03110219 -0.14390339
0.52332067 -0.030541055 -0.12102367
0.51545358 -0.030172203 -0.10036553
0.53989798 -0.033210743 -0.14493866
0.51543081 -0.031886298 -0.11922406
0.49379078 -0.030634087 -0.096167736
0.53206766 -0.03459378 -0.14286812
0.51920551 -0.033939522 -0.12012386
0.53579831 -0.036714967 -0.14390339
0.52686042 -0.036287285 -0.12192347
0.49748206 -0.034351103 -0.096930973
0.54144746 -0.039001413 -0.1454563
0.5034067 -0.036437906 -0.11652464
0.4973591 -0.036087431 -0.096930973
0.54130805 -0.040891182 -0.1454563
0.50910586 -0.038637314 -0.11787435
0.50897568 -0.038716782 -0.099220678
0.54116946 -0.042685997 -0.1454563
0.50897497 -0.040325359 -0.11787435
0.50493032 -0.04009359 -0.098457441
0.53139049 -0.043781627 -0.14286812
0.51659948 -0.04274454 -0.11967396
0.50087422 -0.041531418 -0.097694203
0.52738494 -0.045305561 -0.14183284
0.53197938 -0.045887325 -0.12327318
0.49681428 -0.042941421 -0.096930973
0.53876859 -0.048178598 -0.14493866
0.52017039 -0.046698511 -0.12057377
0.51034886 -0.045906574 -0.099602297
0.53281778 -0.04961561 -0.14338575
0.50447345 -0.047153831 -0.11697455
0.5140866 -0.048142895 -0.10036553
0.54225582 -0.052404344 -0.14597394
0.51206434 -0.049667016 -0.11877415
0.50023705 -0.048607972 -0.097694203
0.53245842 -0.053334139 -0.14338575
0.51964372 -0.052233759 -0.12057377
0.50006431 -0.050353829 -0.097694203
0.52266127 -0.054196186 -0.14079756
0.52139652 -0.054249004 -0.12102367
0.49207482 -0.051285025 -0.096167736
0.53207314 -0.057050072 -0.14338575
0.50570345 -0.054401219 -0.11742445
0.49970061 -0.053843681 -0.097694203
0.53187072 -0.058907006 -0.14338575
0.50938416 -0.056596514 -0.11832426
0.49755841 -0.055370495 -0.097312585
0.53551126 -0.061108481 -0.14442103
0.51500195 -0.05895023 -0.11967396
0.52570158 -0.061848767 -0.14183284
0.51479304 -0.060747564 -0.11967396
0.5158934 -0.062521324 -0.13924465
0.51457787 -0.06254416 -0.11967396
0.51950604 -0.064799972 -0.14027992
0.49888703 -0.062404953 -0.11607474
0.51927668 -0.066612996 -0.14027992
0.49286771 -0.063400127 -0.11472504
0.52670211 -0.069435172 -0.14235048
0.49071148 -0.064864799 -0.11427514
0.5130558 -0.069459051 -0.13872701
0.49048206 -0.066577308 -0.11427514
0.50515634 -0.070186101 -0.13665646
0.50375742 -0.070170984 -0.11742445
0.5068208 -0.072221532 -0.1371741
0.49579278 -0.070826635 -0.11562485
0.49752951 -0.071163349 -0.097694203
0.52568132 -0.076782309 -0.14235048
0.50518346 -0.073968455 -0.11787435
0.51670301 -0.075747259 -0.10151038
0.52541006 -0.078616813 -0.14235048
0.51263088 -0.07688763 -0.11967396
0.50284505 -0.075509623 -0.098839059
0.51367503 -0.078695074 -0.13924465
0.51621169 -0.079268128 -0.12057377
0.49287611 -0.075772829 -0.096930973
0.50576299 -0.079290815 -0.1371741
0.51400673 -0.080767065 -0.12012386
0.484851 -0.076272465 -0.095404498
0.51883554 -0.083196871 -0.14079756
0.50025332 -0.080396272 -0.11697455
0.4903968 -0.078900024 -0.096549354
0.51665032 -0.08460474 -0.14027992
0.50383002 -0.082685925 -0.11787435
0.49788159 -0.081798941 -0.098075822
0.51635188 -0.086407669 -0.14027992
0.5054602 -0.084766418 -0.11832426
0.49952918 -0.083861418 -0.098457441
0.51031917 -0.087322131 -0.13872701
0.50514615 -0.086618453 -0.11832426
0.4934136 -0.084695302 -0.097312585
0.50239915 -0.087773047 -0.13665646
0.51635796 -0.090397522 -0.12102367
0.50018787 -0.089187101 -0.13613881
0.50644749 -0.090485647 -0.11877415
0.51127744 -0.093007043 -0.13924465
0.48887417 -0.089107946 -0.11472504
0.48477414 -0.088448048 -0.095786117
0.50715077 -0.094086401 -0.13820937
0.50580341 -0.094019085 -0.11877415
0.49163368 -0.092984021 -0.13406827
0.50547218 -0.095784098 -0.11877415
0.49321961 -0.09497913 -0.1345859
0.50132483 -0.096721448 -0.11787435
0.49857223 -0.097815983 -0.13613881
0.49524772 -0.097343281 -0.11652464
0.49445617 -0.098712347 -0.13510354
0.4911004 -0.098220684 -0.11562485
0.49789485 -0.10120736 -0.13613881
0.49648321 -0.10110089 -0.11697455
0.49752057 -0.10303156 -0.13613881
0.50374174 -0.1045033 -0.11877415
0.48770621 -0.10277582 -0.13355063
0.49384031 -0.10424852 -0.11652464
0.48925173 -0.10479717 -0.13406827
0.50111341 -0.10752089 -0.11832426
0.49643326 -0.10814919 -0.13613881
0.4893114 -0.1067766 -0.11562485
0.5016917 -0.11122237 -0.13769174
0.49842876 -0.11068155 -0.11787435
0.49941581 -0.11254822 -0.1371741
0.49803936 -0.11242072 -0.11787435
0.48960444 -0.11213439 -0.1345859
0.50524151 -0.11590139 -0.11967396
0.49861792 -0.11603203 -0.1371741
0.49154878 -0.11456788 -0.11652464
0.49256974 -0.11643855 -0.13562118
0.48735324 -0.11538506 -0.11562485
0.50718808 -0.12176509 -0.13976228
0.48694751 -0.11708554 -0.11562485
0.48801184 -0.11887423 -0.1345859
0.50170231 -0.12239461 -0.11922406
0.48946929 -0.12104075 -0.13510354
0.4974888 -0.12320818 -0.11832426
0.50026423 -0.12565769 -0.13820937
0.48569471 -0.12217833 -0.11562485
0.4904626 -0.12501734 -0.13562118
0.48148888 -0.12290899 -0.11472504
0.49189353 -0.12721232 -0.13613881
0.49614891 -0.12849762 -0.11832426
0.49892095 -0.13088946 -0.13820937
0.47605827 -0.12666932 -0.13199772
0.48493898 -0.13084657 -0.1345859
0.49006942 -0.13406782 -0.13613881
0.49146006 -0.13629393 -0.13665646
0.47986969 -0.13470456 -0.13355063
0.48311281 -0.137436 -0.1345859
0.37846091 -0.33015248 -0.061665889
0.37207642 -0.33139151 -0.061178409
0.36975381 -0.33398101 -0.061178409
0.36887699 -0.33789507 -0.061422151
0.37061349 -0.34187254 -0.061909627
0.37959868 -0.35262144 -0.063615799
0.37256679 -0.34851989 -0.062640846
0.36251983 -0.34114388 -0.078842968
0.37285417 -0.35111436 -0.062884584
0.36874548 -0.34968182 -0.062397104
0.35721171 -0.34100127 -0.078217231
0.37607372 -0.35925829 -0.063859537
0.38626218 -0.37157857 -0.065809444
0.35772139 -0.34617221 -0.078842968
0.3964361 -0.38390505 -0.067759357
0.35934028 -0.35017607 -0.079468705
0.3737756 -0.36449769 -0.064103276
0.38241547 -0.37553632 -0.065809444
0.35407674 -0.3498992 -0.078842968
0.38533673 -0.38105634 -0.066540658
0.35559183 -0.35398188 -0.079468705
0.38393751 -0.38246611 -0.066540658
0.34877366 -0.34962693 -0.078217231
0.38680452 -0.38802162 -0.067271881
0.35862461 -0.35987863 -0.04444943
0.35033154 -0.35364899 -0.078842968
0.3742753 -0.37808338 -0.065321967
0.35456336 -0.35829589 -0.044100806
0.34632432 -0.35205328 -0.078217231
0.36877841 -0.37514067 -0.064590752
0.36448237 -0.37089995 -0.045495298
0.35619995 -0.36450219 -0.080720186
0.36753237 -0.37636152 -0.064590752
0.35629159 -0.3649781 -0.04462374
0.34942269 -0.36007291 -0.079468705
0.36898029 -0.38049227 -0.065078229
0.35362864 -0.36478904 -0.04444943
0.35090512 -0.36413524 -0.080094449
0.37591168 -0.39035723 -0.066540658
0.3551167 -0.36889195 -0.04479805
0.36602092 -0.38248405 -0.083848871
0.35945517 -0.37588555 -0.063859537
0.37034795 -0.38741159 -0.046889789
0.36468357 -0.38375938 -0.083848871
0.36770952 -0.38721421 -0.065565705
0.37036508 -0.39014697 -0.047064099
0.37147629 -0.39365008 -0.08572609
0.36226991 -0.38416272 -0.06483449
0.3635343 -0.38563836 -0.046366856
0.37023777 -0.39481518 -0.08572609
0.35698912 -0.38095346 -0.064103276
0.36095887 -0.38532445 -0.046192545
0.36616498 -0.39321387 -0.085100345
0.36241871 -0.38946337 -0.065321967
0.37318188 -0.4011701 -0.047935657
0.37283701 -0.4031916 -0.086977564
0.35297367 -0.38197848 -0.063859537
0.37718698 -0.40832442 -0.048632905
0.3767716 -0.4103106 -0.088229038
0.3623752 -0.39490926 -0.065809444
0.38653383 -0.42138445 -0.050027397
0.37799904 -0.41454259 -0.088854775
0.37436467 -0.41084483 -0.068246834
0.3676188 -0.40358305 -0.047761347
0.36859444 -0.40707377 -0.086977564
0.37292826 -0.4121491 -0.068246834
0.36086169 -0.39895341 -0.047064099
0.36717123 -0.40835792 -0.086977564
0.36618036 -0.40754193 -0.067271881
0.37011775 -0.41206869 -0.048458595
0.33352351 -0.37158754 -0.026167978
0.36574355 -0.40963709 -0.086977564
0.37268502 -0.417705 -0.068734311
0.36337239 -0.40741056 -0.047761347
0.3322244 -0.37274948 -0.026167978
0.36431143 -0.41091129 -0.086977564
0.36069348 -0.40711677 -0.066784397
0.37779978 -0.42657471 -0.049853086
0.3733173 -0.42404178 -0.089480512
0.37238222 -0.42327747 -0.069221787
0.36709812 -0.41741803 -0.048632905
0.3744351 -0.42831674 -0.090106249
0.37873843 -0.43354464 -0.070684217
0.37350202 -0.42770115 -0.049678773
0.37293771 -0.42962116 -0.090106249
0.37462121 -0.43186498 -0.07019674
0.36156449 -0.41696012 -0.048284281
0.38183072 -0.44282371 -0.092609204
0.3913281 -0.4541586 -0.073609084
0.36538097 -0.4241952 -0.048981529
0.37771317 -0.44115281 -0.091983467
0.37683508 -0.44043833 -0.071171694
0.37814316 -0.44212335 -0.050898954
0.39152488 -0.46052852 -0.095737889
0.37529537 -0.44175103 -0.071171694
0.35596207 -0.41914251 -0.048109971
0.38226956 -0.45283568 -0.093860678
0.37375107 -0.44305837 -0.071171694
0.36220327 -0.42952123 -0.049155839
0.32175374 -0.38182425 -0.026167978
0.40352774 -0.48141733 -0.099492319
0.37220225 -0.44436032 -0.071171694
0.36070174 -0.43078294 -0.049155839
0.39426285 -0.4737131 -0.097615108
0.39349708 -0.47312883 -0.07555899
0.35919583 -0.43203941 -0.049155839
0.33439615 -0.40249613 -0.027424041
0.39747232 -0.48131606 -0.098866582
0.38409665 -0.46544975 -0.07409656
0.36133784 -0.43802625 -0.049678773
0.32903695 -0.39915377 -0.027110025
0.41081977 -0.50103098 -0.10262101
0.39001834 -0.47600058 -0.07555899
0.34465688 -0.42078868 -0.047587037
0.32258156 -0.39411765 -0.026691338
0.41672987 -0.51150787 -0.10449822
0.37849465 -0.46490806 -0.073609084
0.34333324 -0.42186937 -0.047587037
0.34906542 -0.42921868 -0.028994121
0.42736524 -0.52831751 -0.10762691
0.39184448 -0.48475197 -0.076533951
0.33184072 -0.41066772 -0.046192545
0.34129131 -0.42266497 -0.02847076
0.30870882 -0.38409358 -0.095786117
0.4329403 -0.53904688 -0.10950413
0.36281464 -0.45205766 -0.071171694
0.34910738 -0.43513435 -0.048807215
0.31982478 -0.39892113 -0.026796009
0.44337192 -0.55599928 -0.11263282
0.38350233 -0.48126584 -0.07555899
0.33517256 -0.42076635 -0.047064099
0.32216194 -0.40472302 -0.027110025
0.47320503 -0.59789318 -0.12076741
0.379273 -0.47955424 -0.075071514
0.34969169 -0.44231012 -0.049330149
0.32562894 -0.41216981 -0.027528713
0.46135107 -0.58711559 -0.11826446
0.39966407 -0.50897831 -0.07945881
0.35060599 -0.44666258 -0.049678773
0.33898008 -0.43216196 -0.028784776
0.31703755 -0.40447834 -0.0089705372
0.39553249 -0.50717014 -0.078971334
0.34422293 -0.44153753 -0.048981529
0.32649818 -0.41910347 -0.027842728
0.31815127 -0.4086833 -0.0090403464
0.39132911 -0.50540859 -0.078483857
0.34755757 -0.44903871 -0.049678773
0.32503325 -0.42024061 -0.027842728
0.32650569 -0.42244902 -0.0093195848
0.3823036 -0.49732852 -0.077021427
0.35327196 -0.45972809 -0.05072464
0.32599717 -0.42454085 -0.028052073
0.31772506 -0.41406736 -0.0091101564
0.39019984 -0.51128429 -0.078971334
0.35166508 -0.46095845 -0.05072464
0.32330239 -0.42408785 -0.0279474
0.30658343 -0.40244827 -0.008830918
0.3764247 -0.4968209 -0.076533951
0.35005388 -0.46218318 -0.05072464
0.32182008 -0.42521381 -0.0279474
0.31965154 -0.42265511 -0.0092497757
0.37946126 -0.50447744 -0.077508904
0.3580175 -0.47614187 -0.052119136
0.31313533 -0.41675404 -0.02731937
0.32057557 -0.42696658 -0.0093195848
0.38253829 -0.51209444 -0.078483857
0.37074172 -0.49648339 -0.054210871
0.33444616 -0.44820398 -0.029308135
0.33828351 -0.45367685 -0.0098780617
0.43041128 -0.58039534 -0.08872088
0.36426035 -0.49137226 -0.053513627
0.30553591 -0.41245624 -0.026900681
0.32836959 -0.44360411 -0.0096337283
0.29032993 -0.39365008 -0.11292543
0.37080938 -0.50387359 -0.054733805
0.33959171 -0.4617911 -0.03004084
0.31971437 -0.43507919 -0.0094242999
0.29125649 -0.39780584 -0.11382523
0.37220243 -0.50855017 -0.12249938
0.37022358 -0.50677371 -0.054908119
0.32855669 -0.4500685 -0.029203463
0.33469266 -0.45880994 -0.0099129668
0.34503761 -0.47490352 -0.11410378
0.37313113 -0.51451457 -0.055605363
0.30471596 -0.4204849 -0.027214697
0.33074337 -0.45673618 -0.0098431576
0.29303303 -0.40615088 -0.11562485
0.35256517 -0.48884365 -0.11715672
0.37366095 -0.5190478 -0.055953987
0.30791166 -0.42803133 -0.027633386
0.32914704 -0.45788792 -0.0098431576
0.29581758 -0.41288903 0.0088658221
0.30296034 -0.42301452 -0.12012386
0.32114238 -0.44856694 -0.10723466
0.37763888 -0.52845412 -0.056825545
0.329629 -0.46161136 -0.029726824
0.29502434 -0.4134562 -0.0088658221
0.3014819 -0.42406946 -0.12012386
0.2968291 -0.41767913 -0.099602297
0.37348646 -0.52651894 -0.056476921
0.301451 -0.42528218 -0.02731937
0.30167007 -0.4259063 -0.0091101564
0.29292789 -0.41494417 0.0088658221
0.29999977 -0.42511925 -0.12012386
0.37164629 -0.52781945 -0.056476921
0.31490543 -0.44756678 -0.028680105
0.31513312 -0.44822276 -0.0095639192
0.29180583 -0.41658714 -0.11742445
0.32768825 -0.46798733 -0.11105084
0.38235658 -0.5470773 -0.058394346
0.30190539 -0.43228871 -0.027633386
0.32729945 -0.46899831 -0.0099827768
0.28025457 -0.40278327 -0.13148007
0.28367519 -0.40800312 -0.11472504
0.38952982 -0.56150496 -0.059788838
0.3026703 -0.4366228 -0.027842728
0.32907638 -0.47506946 -0.010087491
0.29765531 -0.43115389 0.0091450606
0.2866767 -0.41540641 -0.11652464
0.39434704 -0.57270718 -0.06083471
0.30793709 -0.44754905 -0.02847076
0.29569408 -0.43007675 -0.0091101564
0.30406088 -0.44373733 0.0093893949
0.28522491 -0.41640455 -0.11652464
0.38335192 -0.56092083 -0.059440218
0.32101581 -0.4700627 -0.029831495
0.32124308 -0.47074825 -0.0099478718
0.30475923 -0.44810304 0.009459204
0.28815219 -0.42384395 -0.11832426
0.38027316 -0.56060672 -0.059265904
0.32049364 -0.47283363 -0.029936166
0.30389836 -0.44868731 -0.009459204
0.29424286 -0.43590465 0.0091799656
0.27795091 -0.41192409 -0.11472504
0.37720129 -0.56027794 -0.059091594
0.33221912 -0.49383548 -0.03119223
0.32575813 -0.48459649 -0.010192205
0.27318233 -0.40761304 -0.13148007
0.29605848 -0.4419131 0.0092846798
0.27651134 -0.41289181 -0.11472504
0.37745708 -0.56490445 -0.059440218
0.34712887 -0.51990783 -0.032762308
0.30741742 -0.46077874 -0.0096686333
0.27175784 -0.40856415 -0.13148007
0.29562131 -0.44460905 0.0093195848
0.27938318 -0.42034632 -0.11652464
0.36997727 -0.55791622 -0.05856866
0.34310547 -0.51778656 -0.032552965
0.29255918 -0.44184113 -0.0092497757
0.2995744 -0.45398352 0.0094941091
0.2779142 -0.42131901 -0.11652464
0.37131348 -0.56419718 -0.059091594
0.34897786 -0.5306623 -0.03328567
0.31188029 -0.47461185 -0.0099129668
0.29470125 -0.4500078 0.0093893949
0.2849806 -0.43533012 -0.12012386
0.35299924 -0.54046822 -0.056476921
0.35258132 -0.54024011 -0.033809029
0.30476004 -0.46732268 -0.0097384425
0.26535851 -0.40814826 -0.13044479
0.3105638 -0.47786105 0.0099478718
0.28558254 -0.43959057 -0.12102367
0.35977992 -0.55507237 -0.057871412
0.35286486 -0.54482031 -0.034018371
0.31725112 -0.49020797 -0.010192205
0.28938478 -0.44869322 0.0093195848
0.35137317 -0.54627079 -0.056825545
0.34340176 -0.53428763 -0.03328567
0.32202172 -0.50140786 -0.010401634
0.26666936 -0.41649866 -0.13251536
0.29644048 -0.46317479 0.0095988233
0.34088838 -0.53405851 -0.055431053
0.34260866 -0.53716701 -0.033390339
0.30199909 -0.4738611 -0.0098082526
0.26528674 -0.41738066 -0.13251536
0.29383054 -0.46246746 0.0095639192
0.38260365 -0.60358518 -0.087745927
0.34018189 -0.53686899 -0.055605363
0.34830439 -0.55011243 -0.034123044
0.29508039 -0.46641049 -0.0096337283
0.25764474 -0.40850013 -0.12940952
0.28154969 -0.4465746 0.0092148706
0.36358353 -0.57803184 -0.083846107
0.34572944 -0.54986 -0.056825545
0.35275716 -0.56147194 -0.034751076
0.30833569 -0.49114829 -0.010122396
0.26441619 -0.42249772 -0.13355063
0.26938349 -0.43060184 0.0088658221
0.35105306 -0.56245744 -0.081408724
0.34380797 -0.55106348 -0.056825545
0.34128559 -0.54744595 -0.033809029
0.30661938 -0.49222159 -0.010122396
0.25478661 -0.41028887 -0.12940952
0.29108086 -0.46891698 0.0096337283
0.33863586 -0.54680276 -0.078971334
0.34712589 -0.56073046 -0.057697102
0.34252465 -0.55372959 -0.034123044
0.34485167 -0.55792671 -0.011448778
0.2705656 -0.43928257 0.0090054413
0.33880365 -0.55136412 -0.07945881
0.34412366 -0.56024104 -0.057522789
0.3426792 -0.5583263 -0.034332387
0.34290203 -0.55912709 -0.011448778
0.26068854 -0.42657396 0.0087262029
0.34307715 -0.56271291 -0.080921248
0.3473503 -0.56994551 -0.058394346
0.34696102 -0.56975418 -0.034960419
0.33679032 -0.55348748 -0.011309159
0.27993375 -0.46167985 0.0094242999
0.34329686 -0.56774461 -0.058045726
0.33567449 -0.55557662 -0.034018371
0.33485624 -0.55465972 -0.011309159
0.26182741 -0.43523765 0.0088658221
0.34746274 -0.57919067 -0.059091594
0.33989432 -0.56702334 -0.034646403
0.32675293 -0.54553217 -0.011099731
0.29515076 -0.49453107 0.010052586
0.33932492 -0.57012743 -0.058045726
0.33893389 -0.56992298 -0.034751076
0.3085022 -0.51916403 -0.010541254
0.29953569 -0.50588244 0.010262015
0.32720262 -0.55415201 -0.056302611
0.3369424 -0.57110262 -0.034751076
0.30871916 -0.52368301 -0.010611063
0.29574236 -0.5034765 0.010192205
0.33393794 -0.57055157 -0.034646403
0.29477522 -0.50404334 -0.010192205
0.2939831 -0.50450575 0.010192205
0.33896428 -0.58380437 -0.035379108
0.29702789 -0.51198798 -0.010331824
0.2912195 -0.50379759 0.0101573
0.30701983 -0.53306234 -0.032238949
0.27529031 -0.47835806 -0.0096337283
0.29841149 -0.52042377 0.010471444
0.29146355 -0.51057583 -0.010262015
0.2975817 -0.52320051 0.010506349
0.28967956 -0.51159012 -0.010262015
0.29673615 -0.52597767 0.010541254
0.28005821 -0.49864992 -0.0099827768
0.28806296 -0.51479483 0.010296919
0.28999346 -0.52058774 -0.010401634
0.29499769 -0.53153342 0.010611063
0.28430641 -0.51459551 -0.010262015
0.28639057 -0.52029699 0.010366729
0.28058657 -0.51207745 -0.010192205
0.29127973 -0.53357989 0.010611063
0.27497825 -0.50602561 -0.010052586
0.28388619 -0.52394319 0.010401634
0.27718419 -0.5139271 -0.010192205
0.27069762 -0.50379276 0.0099827768
0.2550765 -0.47511816 0.028261416
0.28481969 -0.53252476 -0.010541254
0.26696923 -0.50125158 0.0099129668
0.24864204 -0.46723413 0.027738057
0.26975298 -0.50883031 -0.010052586
0.25774699 -0.48803452 0.0096337283
0.24514535 -0.46456638 0.027528713
0.24936581 -0.47436821 -0.0093544899
0.25798318 -0.4924292 0.0097035384
0.23001663 -0.44317895 0.026167978
0.22833665 -0.4530116 -0.026586665
0.25364107 -0.50365198 -0.0098431576
0.23312376 -0.46472675 0.0090752514
0.23925221 -0.47881883 -0.028052073
0.24116309 -0.48306474 -0.0094242999
0.2244558 -0.45117426 0.008796013
0.25717273 -0.5189805 -0.030354854
0.22891276 -0.46235684 -0.0090054413
0.22111066 -0.44836807 0.0087262029
0.24127077 -0.49119228 -0.028680105
0.2413934 -0.49187577 -0.0095639192
0.23359504 -0.47788194 0.0092846798
0.23955472 -0.49203148 -0.028680105
0.23617606 -0.48552245 -0.0094242999
0.23366931 -0.48229364 0.0093544899
0.21873945 -0.45329162 -0.026377322
0.24490115 -0.50795919 -0.0098431576
0.22167754 -0.46143603 0.0089356322
0.22585551 -0.47203094 -0.027424041
0.23804057 -0.49794364 -0.0096337283
0.23038106 -0.48387298 0.0093544899
0.21456718 -0.45086157 0.026167978
0.2554332 -0.53818351 -0.052119136
0.22591795 -0.47642574 -0.027633386
0.23287632 -0.49154297 -0.0094941091
0.22340527 -0.4739013 0.0091450606
0.24489112 -0.52112818 -0.05037602
0.23427272 -0.49898466 -0.028889447
0.23523329 -0.50148559 -0.0096686333
0.22005694 -0.47105476 0.0090752514
0.22815697 -0.48861611 0.028261416
0.24307054 -0.52197987 -0.05037602
0.23252951 -0.4997994 -0.028889447
0.23263846 -0.50049031 -0.0096337283
0.22345157 -0.48270819 0.0092846798
0.24792513 -0.53729779 -0.051770512
0.22409408 -0.48609763 -0.028052073
0.23339967 -0.5067482 -0.0097384425
0.22176524 -0.48348522 0.0092846798
0.21142231 -0.46114829 0.026586665
0.24936189 -0.54540789 -0.052467756
0.22239593 -0.48687693 -0.028052073
0.23328981 -0.51119828 -0.0098082526
0.22769715 -0.50056154 0.0095988233
0.20666587 -0.45453763 0.026167978
0.24271072 -0.53530115 -0.051421888
0.22581001 -0.49848902 -0.028680105
0.22591121 -0.49917597 -0.0095639192
0.22184032 -0.49223781 0.0094242999
0.21738267 -0.48257163 0.027738057
0.24084069 -0.53614509 -0.051421888
0.22733966 -0.50656289 -0.029098792
0.23071243 -0.51455891 -0.0098431576
0.2144139 -0.48022744 0.0091799656
0.21642612 -0.48518914 0.027842728
0.23815766 -0.53516221 -0.051247578
0.217456 -0.48910323 -0.028052073
0.22485611 -0.5062235 -0.0096686333
0.22001624 -0.49743211 0.0094941091
0.21392392 -0.48411483 0.027738057
0.24191406 -0.54875195 -0.052467756
0.21413733 -0.48620364 -0.027842728
0.2255038 -0.51249635 -0.0097733475
0.22781768 -0.52021617 0.0099129668
0.20013973 -0.45744872 0.026167978
0.23830713 -0.5459829 -0.052119136
0.22113542 -0.50712371 -0.028994121
0.22362389 -0.51331943 -0.0097733475
0.21645108 -0.49899378 0.0094941091
0.20410089 -0.4709726 0.026900681
0.23402794 -0.54132497 -0.051596198
0.21382038 -0.4950577 -0.028261416
0.21549268 -0.49940842 -0.0094941091
0.22278248 -0.51804161 0.0098431576
0.20025507 -0.46610627 0.026586665
0.23311105 -0.54388881 -0.051770512
0.21147791 -0.49389097 -0.028156744
0.21942805 -0.51295274 -0.0097384425
0.20765175 -0.48753995 0.0092497757
0.20097281 -0.47231588 0.026900681
0.22887564 -0.53919721 -0.051247578
0.20819311 -0.49094865 -0.0279474
0.22387664 -0.52844572 -0.010017681
0.20655473 -0.49017644 0.0092846798
0.2022575 -0.48044723 0.02731937
0.23374656 -0.55660486 -0.05281638
0.20785184 -0.49542791 -0.028156744
0.2048403 -0.48872784 -0.0092497757
0.20330226 -0.48720354 0.0092148706
0.19596818 -0.47008941 0.026691338
0.23409729 -0.56293637 -0.053339314
0.21991371 -0.5293501 -0.03004084
0.21003193 -0.50606239 -0.0095639192
0.21610948 -0.52302498 0.0098780617
0.19737431 -0.47815523 0.027110025
0.1937703 -0.46965659 0.04444943
0.22302768 -0.54164225 -0.051247578
0.20742729 -0.50425524 -0.028575432
0.19534266 -0.4753491 -0.0089705372
0.19838166 -0.48490936 0.0091450606
0.20401581 -0.49917817 0.028261416
0.22414428 -0.5497973 -0.051944822
0.2064192 -0.50682598 -0.028680105
0.2049866 -0.50381184 -0.0094941091
0.19602151 -0.48371124 0.0091101564
0.19561404 -0.48319024 0.02731937
0.21485946 -0.53206319 -0.050201707
0.20100129 -0.49824661 -0.028156744
0.19882989 -0.49336037 -0.0092846798
0.20401122 -0.50851935 0.0095639192
0.19244017 -0.48016229 0.027110025
0.2742382 -0.68564439 -0.090670794
0.21669883 -0.54206008 -0.051073264
0.20814982 -0.52120298 -0.029412808
0.20451654 -0.5126248 -0.0096337283
0.19789334 -0.49804288 0.0093544899
0.19232056 -0.48451054 0.02731937
0.19176729 -0.48336267 0.045495298
0.26172784 -0.66071212 -0.087258451
0.21416666 -0.54092324 -0.050898954
0.2064203 -0.52189034 -0.029412808
0.19840647 -0.50214148 -0.0094242999
0.20420471 -0.51920092 0.0097384425
0.19062813 -0.48517892 0.02731937
0.2608692 -0.66531789 -0.087745927
0.21082322 -0.53795749 -0.05055033
0.19731627 -0.5040096 -0.028366089
0.19228241 -0.49165696 -0.0092148706
0.19441155 -0.4994123 0.0093544899
0.1926392 -0.49511507 0.027842728
0.23125434 -0.59590077 -0.078483857
0.2132671 -0.54983538 -0.051596198
0.20493665 -0.52890575 -0.029726824
0.19850524 -0.51283872 -0.0095988233
0.19194818 -0.49822187 0.0093195848
0.19441013 -0.50513768 0.028366089
0.25337121 -0.65971041 -0.086770974
0.21134652 -0.55057651 -0.051596198
0.19951366 -0.52029365 -0.029203463
0.18884534 -0.49298733 -0.0092148706
0.18735833 -0.49141487 0.0091799656
0.18988918 -0.4983142 0.0279474
0.22708856 -0.59750068 -0.078483857
0.21013087 -0.55317342 -0.051770512
0.18848462 -0.49671152 -0.027842728
0.18995854 -0.50112301 -0.0093544899
0.19128872 -0.50703365 0.009459204
0.18955794 -0.50271165 0.028156744
0.21801388 -0.57970929 -0.076046467
0.20889966 -0.55576855 -0.051944822
0.1853455 -0.49362683 -0.027633386
0.18891041 -0.50365531 -0.0093893949
0.18602104 -0.49833119 0.0092846798
0.18213156 -0.48843193 0.02731937
0.22291172 -0.5990715 -0.078483857
0.20765288 -0.55836177 -0.052119136
0.18501236 -0.49801528 -0.027842728
0.1829768 -0.49306309 -0.0091799656
0.18289486 -0.49522576 0.0092148706
0.18051085 -0.48903322 0.02731937
0.21258992 -0.57749146 -0.07555899
0.2050146 -0.55721337 -0.051944822
0.19567476 -0.5324018 -0.029726824
0.18676801 -0.50871629 -0.009459204
0.18811721 -0.51461095 0.0095639192
0.18574212 -0.50838888 0.028366089
0.17418307 -0.47726774 0.04444943
0.20931454 -0.57446295 -0.075071514
0.2031657 -0.55789018 -0.051944822
0.1904943 -0.52366316 -0.029203463
0.18371412 -0.50557387 -0.0093893949
0.18971974 -0.52466714 0.0097384425
0.18192986 -0.50339907 0.028052073
0.20192339 -0.5602501 -0.073121607
0.2025675 -0.56234491 -0.052293446
0.18731277 -0.52056628 -0.028994121
0.18194821 -0.50621212 -0.0093893949
0.18249969 -0.51026303 0.009459204
0.1747933 -0.48898533 0.027214697
0.2106314 -0.59086895 -0.077021427
0.19926596 -0.55929494 -0.051944822
0.18683383 -0.52498025 -0.029203463
0.17884047 -0.50307578 -0.0093195848
0.18605226 -0.5259788 0.0097384425
0.17774534 -0.50277382 0.0279474
0.19668716 -0.5579018 -0.072634131
0.19598821 -0.55622876 -0.051596198
0.18102166 -0.51432538 -0.028575432
0.18305242 -0.52067554 -0.0096337283
0.18289459 -0.52284998 0.0096686333
0.17194855 -0.49210909 0.02731937
0.19865943 -0.56983167 -0.07409656
0.19338985 -0.55502808 -0.051421888
0.18907277 -0.5432483 -0.030145511
0.18254709 -0.52508897 -0.0097035384
0.17453162 -0.50458682 0.0093195848
0.17805637 -0.51535946 0.028575432
0.19796301 -0.57427508 -0.074584037
0.18561037 -0.53874618 -0.049853086
0.18652542 -0.54201645 -0.03004084
0.18136314 -0.52761406 -0.0097384425
0.17988706 -0.52600616 0.0097035384
0.16915445 -0.49518752 0.027424041
0.18827263 -0.55241507 -0.071659178
0.18501349 -0.54316276 -0.050201707
0.18141569 -0.53321016 -0.029517479
0.18209407 -0.53581727 -0.0098780617
0.17548798 -0.51905346 0.0095639192
0.16742489 -0.49577498 0.027424041
0.19648431 -0.58316785 -0.07555899
0.18438801 -0.54758173 -0.05055033
0.18019006 -0.53573322 -0.029622151
0.18085945 -0.53834522 -0.0099129668
0.17621048 -0.52724922 0.0097035384
0.1656933 -0.49635637 0.027424041
0.18817498 -0.56501627 -0.073121607
0.17932934 -0.5387699 -0.049678773
0.1783189 -0.53635895 -0.029622151
0.16700521 -0.5029152 -0.0092497757
0.16997838 -0.51456958 0.009459204
0.16896608 -0.51210523 0.028261416
0.18868425 -0.57321197 -0.07409656
0.17620234 -0.5356074 -0.049330149
0.17644557 -0.53697813 -0.029622151
0.17148449 -0.52249491 -0.0095988233
0.17181283 -0.52659553 0.0096686333
0.16956337 -0.52031696 0.028680105
0.19394714 -0.59655362 -0.077021427
0.1760851 -0.54193425 -0.049853086
0.17139365 -0.5281226 -0.029098792
0.16401879 -0.50599962 -0.0092846798
0.16813275 -0.52148241 0.0095639192
0.16284838 -0.50569671 0.027842728
0.17972033 -0.5594278 -0.072146654
0.17358327 -0.54064858 -0.049678773
0.16588977 -0.51730651 -0.02847076
0.16591133 -0.51799548 -0.0094941091
0.16640253 -0.52203709 0.0095639192
0.16056465 -0.50433081 0.027738057
