# .PCD v0.7 - Point Cloud Data file format
VERSION 0.7
FIELDS x y z
SIZE 4 4 4
TYPE F F F
COUNT 1 1 1
WIDTH 1506
HEIGHT 1
VIEWPOINT 0 0 0 1 0 0 0
POINTS 1506
DATA ascii
0.14666559 -0.55668026 -0.070684217
0.1516726 -0.5760929 -0.052119136
0.14625557 -0.55630618 -0.030145511
0.13354513 -0.50868207 -0.0091799656
0.12609991 -0.4837589 0.0087262029
0.14761649 -0.56874269 -0.072146654
0.1520611 -0.5862878 -0.05299069
0.14671937 -0.56650585 -0.03066887
0.13268119 -0.51304013 -0.0092497757
0.13336807 -0.51905823 0.0093544899
0.1466143 -0.57310081 -0.072634131
0.14655939 -0.57330287 -0.051770512
0.14622298 -0.57282013 -0.030982886
0.12990169 -0.50962466 -0.0091799656
0.13164608 -0.51949763 0.0093544899
0.14179935 -0.5620352 -0.071171694
0.14319625 -0.56798989 -0.051247578
0.14481021 -0.5752387 -0.031087559
0.13308595 -0.52944624 -0.0095290141
0.1298319 -0.51995403 0.0093544899
0.13696325 -0.55096793 -0.069709264
0.14073241 -0.56655264 -0.051073264
0.13607 -0.54860139 -0.029622151
0.13700569 -0.55320024 -0.0099478718
0.12992682 -0.52817124 0.0094941091
0.13692784 -0.55915517 -0.070684217
0.14348954 -0.58639336 -0.05281638
0.13652441 -0.55877393 -0.030145511
0.13412593 -0.54978967 -0.0098780617
0.1365584 -0.56360388 0.010122396
0.13683692 -0.56734878 -0.071659178
0.13677374 -0.56752133 -0.051073264
0.13410582 -0.55730528 -0.03004084
0.13033736 -0.54247701 -0.0097384425
0.13459022 -0.56407714 0.010122396
0.13393828 -0.56396019 -0.071171694
0.13663204 -0.57574952 -0.051770512
0.13123867 -0.55388308 -0.029831495
0.12844296 -0.5429287 -0.0097384425
0.12804729 -0.54507649 0.0097733475
0.13920005 -0.5953517 -0.075071514
0.13552801 -0.58010322 -0.052119136
0.13610996 -0.5835135 -0.031401575
0.12881488 -0.55311161 -0.0099129668
0.12659435 -0.54746842 0.0098082526
0.13177866 -0.57261962 -0.072146654
0.13260925 -0.57668936 -0.051770512
0.13049702 -0.56841213 -0.030564198
0.12554306 -0.54771048 -0.0098082526
0.12556997 -0.55180669 0.0098780617
0.14117855 -0.62341392 -0.078483857
0.12795714 -0.56548917 -0.05072464
0.12323079 -0.54548621 -0.029308135
0.12319046 -0.54619467 -0.0097733475
0.12539065 -0.56004715 0.010017681
0.13900156 -0.62390292 -0.078483857
0.12078728 -0.54259497 -0.048632905
0.12522569 -0.56346023 -0.030250182
0.11651844 -0.5251469 -0.0093893949
0.11999426 -0.54485828 0.0097384425
0.14107205 -0.64377517 -0.080921248
0.11718798 -0.53522813 -0.047935657
0.1194196 -0.54633325 -0.029308135
0.12150601 -0.55680996 -0.0099478718
0.11597528 -0.5355019 0.0095639192
0.13464256 -0.62485814 -0.078483857
0.11531897 -0.53563392 -0.047935657
0.1233874 -0.5740841 -0.030773543
0.13130805 -0.61197615 -0.010925206
0.10910802 -0.51243323 0.0091450606
0.14151067 -0.66804832 -0.083846107
0.11097331 -0.52433795 -0.046889789
0.12303419 -0.58232778 -0.03119223
0.12834568 -0.60851753 -0.010855397
0.13027698 -0.62578285 -0.078483857
0.12212583 -0.58714259 -0.052467756
0.12343699 -0.59448701 -0.03182026
0.12297393 -0.59329718 -0.010576159
0.11058857 -0.54066145 -0.067759357
0.1168842 -0.57194895 -0.051073264
0.11696974 -0.57338774 -0.03066887
0.11810907 -0.58000648 -0.010331824
0.10373594 -0.51354766 0.0091450606
0.10635457 -0.52936703 -0.06629692
0.10390805 -0.51765758 -0.046192545
0.11261325 -0.56204253 -0.03004084
0.11726028 -0.58629781 -0.010436539
0.10661183 -0.53744435 0.0095639192
0.11987463 -0.60763723 -0.076046467
0.11442957 -0.58057016 -0.051770512
0.11720489 -0.59574699 -0.03182026
0.11213038 -0.57100576 -0.0101573
0.097090244 -0.49855679 0.0088658221
0.10794012 -0.55738097 -0.069709264
0.10710388 -0.5535804 -0.049330149
0.11171633 -0.57850325 -0.030878214
0.11240737 -0.583175 -0.010366729
0.095349364 -0.49889266 0.0088658221
0.10228775 -0.53825247 -0.067271881
0.11111692 -0.58526969 -0.052119136
0.10932445 -0.57692736 -0.030773543
0.10962778 -0.57963413 -0.010296919
0.10113587 -0.5425092 -0.067759357
0.10688452 -0.57390177 -0.051073264
0.10438993 -0.56159645 -0.029936166
0.10432099 -0.56231797 -0.0099827768
0.09638568 -0.52723706 -0.065809444
0.11275557 -0.61739069 -0.054908119
0.10636853 -0.58357114 -0.031087559
0.1019996 -0.56071126 -0.0099478718
0.087541379 -0.48849103 -0.06093467
0.10568424 -0.59032363 -0.052467756
0.10362828 -0.58000666 -0.030878214
0.10004173 -0.56106389 -0.0099478718
0.1015574 -0.5789144 -0.051421888
0.098158874 -0.56069148 -0.029831495
0.098082647 -0.56140971 -0.0099478718
0.1003126 -0.58317512 -0.051770512
0.089879081 -0.52361298 -0.027842728
0.096220404 -0.56173187 -0.0099478718
0.099599913 -0.5913806 -0.052467756
0.092685036 -0.55149841 -0.029308135
0.089628741 -0.53445411 -0.009459204
0.095590785 -0.57992947 -0.051421888
0.092055939 -0.55970174 -0.029726824
0.081933357 -0.49924436 -0.008830918
0.08785677 -0.54485393 -0.048284281
0.091370694 -0.56790727 -0.030145511
0.080824077 -0.50347614 -0.0089007271
0.092160426 -0.58451885 -0.051770512
0.085663281 -0.54454678 -0.028889447
0.088298917 -0.57302207 -0.05072464
0.078906171 -0.51325744 -0.027214697
0.08926373 -0.59302878 -0.052467756
0.077707276 -0.51747996 -0.027424041
-37.589527 12.913765 -10.649886
-37.562469 13.051239 -10.655063
-46.491936 16.884933 -13.253606
-45.689182 16.774139 -13.041374
-45.525303 16.894539 -13.011351
-45.657787 17.125265 -13.06622
-43.586288 17.046188 -12.5403
-45.354961 17.756153 -11.244853
-36.717079 14.507677 -10.578452
-45.125988 17.848423 -11.203463
-36.763103 14.674429 -10.606404
-44.451756 17.761436 -11.051395
-36.790489 14.834454 -10.629181
-44.338886 17.89607 -11.038798
-37.053375 15.091035 -10.720284
-44.283363 18.053677 -11.040598
-36.896847 15.177657 -10.690262
-43.868351 18.242668 -10.968614
-36.358887 15.254008 -10.564994
-43.811592 18.398705 -10.970413
-60.918652 25.595333 -12.844117
-36.376568 15.410975 -10.585699
-43.395458 18.402405 -10.882233
-36.40781 15.574329 -10.610545
-43.510101 18.630478 -10.927222
-36.49865 15.764133 -10.652992
-58.308388 25.220211 -12.348777
-37.293392 16.262087 -10.901458
-43.21109 18.8605 -10.884932
-38.912567 17.130047 -11.392179
-39.392651 17.522264 -9.9536343
-45.169777 20.101435 -9.6102858
-42.98946 19.221111 12.617946
-38.703899 17.361753 -11.366297
-39.245914 17.621349 -9.9320393
-42.8797 19.342911 12.604487
-33.683769 15.251289 -9.9075928
-37.994938 17.219278 -9.6306047
-42.720615 19.459902 12.578606
-33.535442 15.325414 -9.8796406
-37.686497 17.238316 -9.5676184
-43.094696 19.803122 12.708015
-33.527355 15.463418 -9.8930988
-37.672096 17.390999 -9.5793161
-44.186035 20.407457 -9.4606915
-59.570759 27.538174 -10.394444
-35.851013 16.679527 -10.595016
-38.236061 17.805399 -9.7376814
-44.367264 20.669943 -9.5141182
-35.736614 16.778297 -10.578452
-38.61813 18.147619 -9.8510561
-43.850666 20.615864 -9.4187136
-59.031609 27.778168 -10.333122
-44.449566 20.973259 11.346981
-40.78875 19.263336 12.086849
-35.832344 16.991463 -9.155508
-43.821007 20.789001 -9.4278727
-37.446316 17.917166 -9.5838146
-52.338718 25.121454 11.284825
-40.469261 19.441753 10.365294
-37.560856 18.052603 11.166489
-34.851963 16.803093 -10.367255
-37.249798 17.975183 -9.5487223
-44.053303 21.26775 -9.5087757
-46.960873 22.732115 10.141499
-37.326942 18.092798 11.114725
-35.168335 17.107178 -10.479066
-35.823681 17.441429 -9.198698
-40.272961 19.685959 10.349098
-37.857323 18.521538 11.292792
-33.249275 16.317446 -9.9241571
-35.654137 17.513102 -9.170805
-36.822044 18.166613 11.00188
-33.15749 16.416265 -9.913805
-35.578819 17.630529 -9.1672058
-45.390141 22.502247 -9.8476524
-44.055042 21.897873 9.5629654
-36.678848 18.25544 10.978068
-33.006657 16.485294 -9.8858519
-35.457794 17.724989 -9.1519089
-59.32608 29.695339 -10.507703
-68.34597 34.240032 12.107402
-43.950256 22.037439 9.556859
-39.664009 19.905569 10.245621
-36.17638 18.163191 10.846588
-32.990318 16.621269 -9.8982754
-36.345764 18.327728 -9.3975554
-47.486088 23.95575 -10.338413
-59.222065 29.902245 -10.507703
-49.917152 25.247782 10.873442
-39.507351 19.999893 10.223125
-36.009617 18.24502 10.816566
-36.511078 18.579248 -9.4578419
-58.41156 29.762177 -10.383182
-49.789307 25.412718 10.865809
-38.496662 19.665834 9.9801788
-36.169338 18.484894 10.883859
-36.800148 18.872129 -11.081596
-36.58123 18.775991 -9.4929342
-44.040577 22.614351 -9.6232605
-45.165424 23.251749 9.8743658
-38.323841 19.74654 9.9531841
-35.980961 18.547306 10.846588
-32.886063 16.995575 -9.9189816
-37.681767 19.490673 -9.7943687
-43.184677 22.346575 -9.4515324
-57.45512 29.756466 -10.248022
-42.084267 21.833054 9.2156925
-37.656292 19.552534 9.7957182
-36.042679 18.730661 10.883859
-32.723751 17.05669 -9.8879232
-37.361248 19.490494 -9.7286835
-40.306545 21.08967 8.8424702
-32.565697 17.133642 -9.8599701
-35.244572 18.558777 -9.1959991
-42.672314 22.479527 -9.3752089
-70.191696 36.992229 6.9416065
-56.994312 30.049692 -10.204845
-55.276943 29.16889 9.8991728
-40.141941 21.200272 8.8241529
-35.975159 19.015722 9.3944063
-35.142811 18.591457 10.652992
-32.635384 17.316027 -9.8993111
-35.127941 18.65427 -9.1825018
-42.614391 22.639397 -9.3797884
-56.794891 30.198378 -10.187951
-40.275631 21.451012 8.8699474
-35.908562 19.141184 9.3944063
-32.806396 17.553793 -9.9697094
-33.629871 18.009514 -8.8072834
-42.753155 22.904829 -9.4278727
-69.232819 37.106758 6.8722305
-38.72345 20.798151 8.5440454
-35.786602 19.236885 9.3800087
-32.5103 17.541607 -9.8982754
-33.487926 18.0842 -8.7865877
-42.607304 23.018465 -9.4133711
-38.719666 20.970592 8.55931
-35.75108 19.395098 10.898353
-32.410904 17.619665 -9.8848171
-33.444641 18.196766 -8.7901878
-42.686523 23.234802 -9.4469538
-60.687675 33.06052 -10.94572
-44.687187 24.364246 8.0613804
-37.988373 20.729137 8.4120054
-36.872551 20.136974 9.69944
-35.235638 19.251003 10.75859
-32.010395 17.54697 -9.7812891
-33.445843 18.349018 -8.8072834
-55.692196 30.566431 -12.348777
-45.428406 24.984802 8.2115583
-37.778175 20.785904 8.3814764
-36.013386 19.83128 9.4915848
-34.775703 19.165556 10.639533
-31.418047 17.365164 -9.6187506
-33.52483 18.544889 -8.8450756
-45.137978 25.02039 8.1740141
-37.56118 20.837645 8.3494196
-34.951767 19.413973 10.713037
-31.323488 17.455919 -9.6083984
-33.092274 18.456766 -8.7478962
-42.53688 23.734102 -9.4683237
-55.650093 31.089041 7.8269367
-44.735619 25.01214 8.1176977
-37.5499 21.003134 8.3631582
-34.836559 19.517397 10.699579
-31.053524 17.447811 -9.5442114
-33.129562 18.629478 -8.7748909
-42.32373 23.809282 -9.4393206
-60.564426 34.098454 -11.008293
-43.141411 24.308937 7.8429985
-40.2159 22.678993 8.9745102
-35.681549 20.138351 9.4591923
-34.744728 19.617615 10.691298
-30.017508 17.003843 -9.2439814
-37.193981 21.086212 -9.8708525
-42.209625 23.939442 -9.4324522
-42.962719 24.416142 7.8267293
-37.494518 21.317165 8.3837652
-35.113075 19.979439 9.3269205
-35.451527 20.188404 10.931481
-30.038855 17.161665 -9.2698631
-35.302917 20.185455 -9.3885574
-43.562828 24.958765 7.9518766
-38.369888 22.001329 8.5974712
-35.063274 20.12158 9.3332195
-35.106075 20.154289 10.846588
-29.941936 17.245203 -9.2584753
-35.026264 20.189833 -9.3336687
-46.792511 26.983011 -10.499455
-53.489334 30.88208 7.5836854
-41.521221 23.991617 7.5952063
-38.122883 22.03688 8.55931
-35.390907 20.47415 9.4393959
-35.065407 20.302183 10.856941
-32.818592 19.054895 -10.168483
-34.588261 20.098536 -9.2355909
-42.410637 24.653862 -9.5354891
-41.328766 24.063574 7.5745568
-36.566578 21.307896 8.2265387
-35.430328 20.662357 9.4690895
-32.735203 19.159578 -10.163306
-34.238766 20.055647 -9.1609068
-53.334072 31.290915 7.5924602
-42.038403 24.673647 7.7203536
-36.332851 21.341938 8.1906672
-35.012997 20.59132 10.883859
-32.648159 19.26195 -10.157095
-33.957115 20.050196 -9.1042194
-52.711926 31.173746 7.5193386
-41.29491 24.441202 7.6002121
-35.639839 21.102537 8.0509949
-34.794666 20.62672 10.838306
-32.560799 19.363945 -10.150883
-33.829983 20.13472 -9.0889225
-62.3535 37.140652 6.3496447
-41.30434 24.641874 7.6177325
-35.515385 21.19663 8.039546
-38.371906 23.001511 -11.987463
-33.722729 20.230631 -9.0790243
-41.13343 24.735004 7.6020894
-35.468094 21.336666 8.0456524
-27.874752 16.788595 8.7190962
-38.536098 23.283169 -12.064074
-49.790813 30.106899 -13.433177
-41.300236 25.032019 7.6490197
-37.112453 22.50267 8.436429
-36.03727 21.867952 9.7318325
-27.971209 16.980026 8.7677536
-49.895088 30.4083 -13.489865
-40.259403 24.584091 7.4713101
-37.09734 22.670982 8.4509306
-35.674774 21.818729 9.6544495
-27.779938 16.996902 8.7263432
-38.211258 23.452599 -12.013345
-41.016815 25.253454 7.6289959
-36.947769 22.757095 8.4349022
-35.396008 21.818371 9.5995617
-27.779932 17.137148 8.7460136
-37.87038 23.416624 -11.930523
-47.076805 29.200232 8.7740965
-36.93549 22.918827 8.4494038
-35.369816 21.964415 9.6121588
-34.572117 21.477411 10.9056
-37.722828 23.507805 -11.909817
-40.475468 25.301702 7.5601649
-38.902687 24.327982 8.9187937
-34.421616 21.550802 10.881788
-37.846672 23.768797 -11.975039
-40.26096 25.35368 7.5357609
-42.47821 26.77067 9.7598801
-42.994377 27.30612 9.9003153
-34.907619 22.187248 9.5491724
-33.503666 21.311321 10.639533
-42.910206 27.452776 9.9018421
-34.833851 22.302885 9.5491724
-33.149784 21.240955 10.549464
-49.597416 31.889893 -13.613138
-42.655712 27.500269 9.8652067
-34.788536 22.445471 9.5581703
-33.033241 21.329294 10.536006
-48.233032 31.251135 -13.268513
-42.598969 27.674665 9.8743658
-34.595612 22.492414 9.5266771
-58.109802 37.794651 -1.2099754
-33.001198 21.463999 10.548429
-42.69265 27.947929 9.9186335
-34.353878 22.506247 9.4816866
-48.115608 31.666187 -13.298206
-42.209763 27.853355 9.8300982
-34.235382 22.608383 9.4717894
-33.61401 22.206469 10.794825
-41.98476 27.915737 9.8003321
-34.081627 22.678091 9.4510937
-33.371597 22.222445 10.743061
-41.823444 28.008928 9.7843037
-39.763111 26.850861 11.07704
-41.761559 28.402443 9.8171225
-34.193474 23.272776 9.5491724
-31.454727 21.416761 10.196435
-41.814396 28.652359 9.8529949
-41.077473 28.168476 11.499048
-31.363277 21.523161 10.192294
-41.85165 28.882301 9.8842878
-48.149937 33.477543 11.399311
-35.651928 24.824905 11.640645
-48.077808 33.676952 11.409996
-35.885754 25.164829 11.744173
-47.97921 33.858154 11.414576
-31.222 22.057358 10.243023
-47.895935 34.050449 11.422972
-22.158699 15.829 -6.286932
-45.797588 32.799946 10.949765
-35.615936 25.611504 -11.754526
-35.317913 25.509583 11.673774
-42.545528 31.138618 10.248351
-21.006334 15.464581 -4.1314344
-42.398647 31.25898 10.239192
-31.507498 23.254805 -0.68354094
-19.824306 14.685285 -5.6957607
-20.558727 15.246 -4.0538425
-41.321529 30.688076 10.004879
-31.166159 23.171362 -0.67788637
-19.791666 14.76838 -5.7011595
-19.840509 14.810217 -4.8125844
-20.331301 15.18763 -4.0194273
-30.899418 23.140961 -0.67383742
-19.743635 14.845506 -5.7029591
-37.352642 28.096163 2.449532
-19.798645 14.892278 -4.8156376
-20.319689 15.295309 -4.0281873
-30.667545 23.143238 -0.67062616
-19.75593 14.968411 -4.8179274
-20.32284 15.40911 -4.0394506
-30.465582 23.158176 -0.6679734
-18.954126 14.454865 -5.5032024
-19.044369 14.528943 -4.6561213
-20.318733 15.51238 -4.0488367
-30.28064 23.17643 -0.66559988
-18.803102 14.443776 -5.473959
-18.898577 14.522361 -4.6328425
-20.317701 15.624152 -4.0594745
-30.00951 23.135475 -0.66141129
-18.652388 14.431809 -5.4447155
-18.75617 14.517343 -4.6103268
-20.313015 15.733687 -4.0694861
-31.022562 24.054895 -3.4344592
-37.55172 29.128099 9.2378263
-29.467377 22.881964 -0.65121907
-18.540413 14.448915 -5.4267192
-18.634157 14.5272 -4.5927725
-20.310925 15.84581 -4.0801239
-36.629871 28.618391 9.0355692
-29.377872 22.977291 -0.65100968
-18.425482 14.463009 -5.4078236
-18.506128 14.531533 -4.5736918
-20.311403 15.96055 -4.0913868
-29.291204 23.074751 -0.65087003
-18.315266 14.480103 -5.3902774
-31.731777 25.096237 2.1202343
-18.404476 14.555853 -4.5610981
-20.295839 16.063227 -4.0995216
-28.48348 22.559544 -4.4613929
-29.054285 23.019886 -3.2430651
-29.122757 23.10725 -0.64891535
-18.200583 14.492963 -5.3713813
-18.295202 14.573525 -4.5465965
-20.282896 16.168451 -4.1082821
-27.994877 22.332022 -4.3970461
-28.450497 22.703604 -3.1844966
-29.113779 23.266193 -0.65052098
-18.108835 14.523487 -5.3592339
-18.186028 14.590613 -4.5320954
-20.287947 16.288622 -4.1207967
-27.396797 22.011848 -4.3151498
-27.902079 22.425831 -3.1318545
-28.674097 23.079296 -0.64249289
-32.580196 26.232618 11.2079
-18.112082 14.635496 -4.526371
-20.28319 16.401571 -4.1314344
-26.841419 21.720243 -4.2395906
-31.636223 25.600227 6.4457259
-27.359049 22.147017 -3.079561
-18.768883 15.269382 -5.5859847
-20.284019 16.519674 -4.1433234
-26.371511 21.492756 -4.1771936
-30.853218 25.154306 6.3049345
-26.818312 21.864689 -3.0272675
-32.343063 26.397161 9.6382532
-27.505432 22.456875 -0.61980474
-18.715469 15.334805 -5.5859847
-20.268995 16.625456 -4.1520834
-25.891249 21.25218 -4.1128464
-26.276804 21.57633 -2.9746256
-26.723888 21.959061 -1.8127081
-26.568096 21.846588 -0.60039771
-18.643789 15.385157 -5.580586
-27.890791 23.024115 1.895399
-18.572521 15.331795 -4.6813078
-28.413315 23.463804 3.223891
-20.265663 16.741398 -4.1633468
-25.406874 21.00346 -4.0475245
-25.774492 21.314938 -2.926167
-26.390028 21.855015 -0.59809399
-18.598362 15.446142 -5.5814857
-27.280636 22.664911 1.8587638
-18.433659 15.314791 -4.658411
-27.695906 23.018091 3.1506801
-20.258539 16.842869 -4.1727328
-24.907379 20.722603 -3.978303
-25.339869 21.089914 -2.8843322
-25.924921 21.607496 -0.5890885
-26.266802 21.962456 0.59764022
-18.544333 15.510968 -5.5814857
-26.78471 22.411385 1.8302931
-18.377077 15.376524 -4.6576476
-27.208988 22.774462 3.1043131
-20.269293 16.971817 -4.1871247
-24.506235 20.534035 -3.9256554
-24.832449 20.814753 -2.8348277
-25.451115 21.363592 -0.58001328
-25.727314 21.672085 0.58716875
-18.478415 15.571298 -5.5787864
-26.277863 22.151541 1.8011943
-18.335606 15.456429 -4.6614637
-26.723228 22.534952 3.058295
-20.24017 17.074015 -4.1940079
-24.396748 20.602257 -2.7936902
-24.743586 20.909952 -1.6977785
-24.945108 21.095181 -0.5702399
-25.291636 21.456457 0.57893121
-25.731426 21.845011 1.7689553
-18.284534 15.52288 -4.6622272
-26.188814 22.24118 3.0060015
-20.171413 17.136889 -4.1921306
-23.602472 20.065979 -3.803786
-23.914896 20.338781 -2.7466261
-24.366249 20.737303 -1.676844
-24.454185 20.826866 -0.56067604
-24.81151 21.206015 0.56971633
-17.542986 14.999019 -5.3286405
-25.23834 21.586069 1.7404846
-25.655979 21.951025 2.9540567
-20.141485 17.238964 -4.1990137
-23.227234 19.894087 -3.7550383
-23.546669 20.174809 -2.7128096
-23.865534 20.462461 -1.6475359
-24.019526 20.609049 -0.5524385
-21.842739 18.794353 -7.7210898
-24.312973 20.927227 0.55994302
-17.425547 15.004216 -5.308845
-24.757278 21.324707 1.7124325
-17.551207 15.11775 -4.5027108
-25.201859 21.715311 2.9104788
-20.461235 17.636751 -4.2784824
-22.799896 19.666458 -3.6970284
-23.138208 19.965319 -2.673764
-26.779367 23.11533 6.8763747
-23.406969 20.211483 -1.6207399
-23.596407 20.389442 -0.54434055
-27.928024 24.132353 9.8899937
-21.435688 18.568176 -7.598927
-23.865631 20.680349 0.55121678
-17.393366 15.077236 -5.3142438
-24.312868 21.075327 1.6862645
-17.38825 15.078117 -4.4737077
-24.753448 21.472376 2.8669009
-20.405621 17.707094 -4.2791085
-22.38982 19.4426 -3.6409686
-22.698849 19.717901 -2.6305346
-26.157223 22.730112 6.735939
-23.038345 20.026928 -1.5998055
-23.208813 20.189341 -0.53694075
-21.073765 18.383818 -7.493329
-23.46183 20.474272 0.54353774
-17.337694 15.135295 -5.313344
-23.883436 20.856882 1.6617713
-17.323681 15.128391 -4.470655
-24.228201 21.165413 2.8146076
-20.929737 18.290361 -4.4023786
-22.052843 19.285418 -3.5970955
-22.317974 19.524153 -2.5942779
-25.708368 22.498051 6.6405349
-22.66474 19.84148 -1.5786618
-22.786228 19.961889 -0.52877301
-20.748226 18.227762 -7.4001541
-23.077789 20.281471 0.53627753
-23.427139 20.595737 1.634766
-17.312046 15.225073 -4.4813399
-23.816101 20.952435 2.7752132
-20.88949 18.38419 -4.4073844
-21.642752 19.060522 -3.5410357
-24.687653 21.749783 5.2111449
-21.950691 19.338524 -2.5594156
-25.184868 22.195637 6.5252862
-22.262749 19.627253 -1.5554246
-22.407505 19.76878 -0.5215826
-20.363268 18.015898 -7.2852383
-22.60853 20.009375 0.52699286
-17.205345 15.232713 -5.3052459
-23.044062 20.402008 1.6129942
-17.249977 15.2776 -4.4790502
-23.334206 20.67342 2.7274518
-21.023287 18.632565 -4.4493089
-21.279058 18.872517 -3.4922879
-24.221485 21.489725 5.1285477
-21.561134 19.129416 -2.5217643
-24.719593 21.939369 6.4245391
-21.85656 19.405161 -1.5317688
-22.045362 19.586554 -0.5147413
-20.04928 17.863256 -7.1951694
-22.204157 19.790134 0.51917416
-17.149158 15.290084 -5.3043461
-22.623325 20.177906 1.5887103
-17.202404 15.342948 -4.480577
-22.964565 20.489458 2.6925895
-20.837271 18.597975 -4.4236536
-20.905102 18.671631 -3.4415903
-23.802395 21.25938 5.0547104
-21.203024 18.944378 -2.4875991
-24.306189 21.724609 6.3367667
-21.473042 19.199114 -1.5095783
-21.681786 19.399378 -0.50783014
-19.748112 17.718967 -7.1092415
-21.837307 19.600376 0.5121932
-17.117432 15.369382 -5.3110943
-22.235287 19.964596 1.5661012
-17.158966 15.412086 -4.4832482
-22.596498 20.303171 2.6577272
-20.484274 18.411779 -4.3623314
-22.921471 20.609629 3.7847743
-20.621365 18.548018 -3.4055169
-23.319021 20.981808 4.9683585
-20.879055 18.786392 -2.457269
-23.865406 21.480967 6.2413621
-21.15357 19.046761 -1.4917841
-21.316818 19.207228 -0.50084919
-19.43693 17.556452 -7.0181375
-21.487314 19.415279 0.5054915
-21.845953 19.74626 1.5432826
-17.123783 15.483386 -4.4874458
-22.195108 20.075937 2.6183329
-20.168238 18.248993 -4.3078923
-22.485069 20.352489 3.7238398
-20.256615 18.341824 -3.3553069
-22.924988 20.757965 4.8982759
-20.533121 18.598717 -2.4238012
-23.401232 21.204062 6.1383252
-20.800249 18.853901 -1.4712684
-20.95974 19.011799 -0.493938
-19.184031 17.450005 -6.9487739
-21.120647 19.218309 0.49844074
-17.065741 15.534076 -5.3277407
-21.508078 19.577709 1.5242324
-17.09576 15.566856 -4.4943151
-21.797903 19.85544 2.5796356
-19.82991 18.069153 -4.249073
-22.155685 20.195494 3.6809416
-19.943104 18.185041 -3.3138711
-22.560459 20.571665 4.8357024
-20.203115 18.428591 -2.3924251
-22.964514 20.954788 6.0429211
-20.439285 18.657091 -1.4503341
-20.603865 18.820509 -0.48709667
-18.877981 17.292421 -6.8597398
-20.767414 19.029829 0.49166921
-17.02578 15.606719 -5.3322396
-21.127481 19.366554 1.5020419
-17.052893 15.637053 -4.4973679
-21.434814 19.662046 2.5447733
-19.525108 17.916559 -4.1971369
-21.681435 19.902208 3.6136699
-19.666029 18.058519 -3.2782853
-22.124762 20.316273 4.7574849
-19.856943 18.240215 -2.3589573
-22.558739 20.729294 5.9551487
-20.112303 18.487732 -1.4317024
-22.906923 21.063995 7.1844869
-20.270187 18.645924 -0.48074397
-18.573267 17.132917 -6.7707062
-20.40694 18.830982 0.48468822
-16.955446 15.651516 -5.327291
-20.77504 19.17737 1.4817356
-17.028496 15.724453 -4.5053821
-21.049929 19.444733 2.507122
-19.239027 17.778147 -4.1489549
-21.32029 19.708273 3.5649221
-19.296806 17.844032 -3.2271001
-21.749142 20.11174 4.6917825
-19.562063 18.095654 -2.3314161
-22.209576 20.551897 5.8818779
-19.804342 18.332602 -1.4143269
-22.490091 20.826054 7.0765104
-19.932116 18.463804 -0.47425169
-18.332037 17.035181 -6.7054839
-20.07415 18.660582 0.47840536
-16.916519 15.730806 -5.3331394
-20.417553 18.993092 1.4614292
-16.918999 15.738621 -4.4916439
-20.680971 19.244867 2.4715626
-18.939505 17.630499 -4.0982699
-21.015472 19.569834 3.5259237
-19.027924 17.725208 -3.1929767
-21.38331 19.919338 4.628583
-19.244898 17.933603 -2.3014345
-21.763596 20.287781 5.7834206
-19.474091 18.159883 -1.3954859
-22.074463 20.591974 6.9694338
-19.645008 18.33209 -0.46901596
-18.010096 16.85355 -6.6092033
-19.769474 18.506418 0.47268099
-16.875729 15.803081 -5.3376389
-20.085844 18.815737 1.442379
-16.901211 15.83248 -4.5015659
-20.340351 19.060816 2.438792
-18.632851 17.466837 -4.0450826
-20.660326 19.374212 3.4776635
-18.737186 17.576935 -3.1544662
-21.013424 19.71912 4.5641317
-18.932289 17.766171 -2.2714529
-21.41782 20.105639 5.7101498
-19.16016 17.992588 -1.3774824
-19.306936 18.143106 -0.46245387
-17.782442 16.757326 -6.5470867
-16.131065 15.206464 0.38695475
-16.827553 15.868577 -5.3398881
-19.78759 18.666452 1.4256314
-16.834417 15.880603 -4.4985127
-20.012863 18.885565 2.4074159
-18.339062 17.312098 -3.9943976
-20.321236 19.189981 3.4318407
-18.421743 17.402315 -3.111568
-20.660725 19.517393 4.5015583
-18.644255 17.618671 -2.2442603
-21.033636 19.883568 5.626194
-18.879564 17.853516 -1.3617816
-21.369562 20.215256 6.7912722
-19.005287 17.984976 -0.45672947
-17.505236 16.611849 -6.4663348
-15.948812 15.140148 0.38384822
-19.452976 18.479553 1.4061625
-16.804502 15.963608 -4.5053821
-19.712847 18.732965 2.3791776
-18.072355 17.180023 -3.9493444
-19.983688 19.003624 3.3860178
-18.179665 17.294119 -3.080857
-20.294266 19.312466 4.4371071
-18.392122 17.502344 -2.2212512
-20.682552 19.688845 5.5506339
-18.579926 17.693424 -1.3446153
-21.067465 20.069288 6.7174883
-18.719454 17.83876 -0.45135415
-17.273956 16.507351 -6.4021478
-15.838047 15.140456 0.38245204
-17.388168 16.628111 -5.5544915
-19.140116 18.309875 1.3881589
-17.618315 16.854084 -4.7393136
-19.431416 18.595036 2.3530307
-17.775404 17.016247 -3.8974082
-19.633356 18.801416 3.3377576
-17.875494 17.124025 -3.0394213
-19.981909 19.141888 4.382668
-18.083492 17.329332 -2.1912696
-20.290569 19.451159 5.463625
-18.275871 17.52593 -1.3270305
-18.423336 17.679693 -0.44569954
-17.007429 16.366615 -6.324502
-15.731796 15.144336 0.38116056
-17.141924 16.507572 -5.4942045
-18.837311 18.146557 1.3707833
-17.34446 16.708447 -4.6813078
-19.088066 18.394541 2.3192143
-17.539549 16.90819 -3.8586125
-19.333263 18.64385 3.2977843
-17.627026 17.004393 -3.0072479
-19.627325 18.940653 4.3200941
-17.836514 17.212492 -2.1686091
-19.959826 19.268248 5.3926439
-18.033558 17.414804 -1.3138418
-18.142937 17.532673 -0.44039401
-16.767071 16.248423 -6.2561741
-15.640071 15.161577 0.38021812
-16.893938 16.382805 -5.4330177
-18.53875 17.984131 1.3536172
-17.097204 16.585712 -4.6301713
-18.760654 18.205753 2.2871411
-17.287659 16.782187 -3.8160625
-19.040211 18.48995 3.2587862
-17.351135 16.855574 -2.9701996
-19.309368 18.757879 4.2637777
-17.544847 17.049707 -2.1403708
-19.689734 19.140745 5.3376908
-17.74929 17.260429 -1.297513
-17.849461 17.36997 -0.43473944
-16.538807 16.139545 -6.191987
-15.558434 15.188141 0.37952003
-16.633093 16.242893 -5.367332
-18.264414 17.842175 1.3381257
-16.876299 16.486151 -4.5859032
-18.483244 18.062252 2.2609942
-17.019915 16.63806 -3.7697577
-18.776855 18.361994 3.2246628
-17.096369 16.724474 -2.9365637
-19.045654 18.637863 4.220602
-17.294411 16.924116 -2.117013
-19.350632 18.942924 5.2636571
-17.500568 17.137823 -1.2836963
-19.671534 19.270515 6.3575668
-17.603048 17.250219 -0.43020183
-16.297731 16.015736 -6.1226234
-15.471097 15.208714 0.37868232
-16.40122 16.128693 -5.3106446
-17.982756 17.690123 1.3220062
-16.611513 16.341194 -4.5294237
-18.170145 17.880705 2.2303154
-16.79562 16.533846 -3.7328391
-18.477854 18.196213 3.1842022
-16.848387 16.597374 -2.9039028
-18.710739 18.43198 4.1599054
-17.039391 16.791393 -2.092958
-19.021544 18.751242 5.1919127
-17.235857 16.996864 -1.2686236
-19.326683 19.065353 6.2675862
-17.340612 17.11211 -0.42524534
-19.745792 19.485596 7.4332829
-16.090679 15.923054 -6.0656834
-15.39944 15.244336 0.37822855
-16.17312 16.015814 -5.2548566
-17.699545 17.533512 1.3056774
-16.37863 16.224989 -4.4813399
-17.915152 17.753292 2.206609
-16.535789 16.392113 -3.6877861
-18.228167 18.076094 3.1520288
-16.601501 16.468748 -2.8712418
-18.430315 18.282938 4.1117234
-16.802481 16.673941 -2.0709949
-18.710751 18.574093 5.1247482
-16.975182 16.857084 -1.2537602
-17.099215 16.992113 -0.42077753
-15.829738 15.774578 -5.9880376
-15.323474 15.275409 0.37767008
-15.94049 15.896037 -5.197269
-17.420477 17.377964 1.2895579
-16.152325 16.112906 -4.4347825
-17.641525 17.604616 2.1804624
-16.288338 16.259935 -3.645236
-17.912121 17.887127 3.1081557
-16.361341 16.344217 -2.8395557
-18.120054 18.107407 4.0572844
-16.560963 16.549406 -2.0483344
-18.456968 18.450527 5.0728478
-16.746761 16.746761 -1.2411995
-16.856041 16.867813 -0.41623989
-19.033014 19.046307 7.2148399
-15.616396 15.671002 -5.9279914
-15.267237 15.325972 0.37760025
-15.722646 15.788643 -5.1441808
-17.184986 17.263147 1.2765787
-15.921461 15.993876 -4.3866987
-17.366348 17.451424 2.1539671
-16.069878 16.15424 -3.6089432
-17.653608 17.752481 3.0740323
-16.133451 16.229473 -2.8098197
-17.825596 17.937952 4.0053482
-16.306479 16.409258 -2.0239305
-18.154469 18.275274 5.0072098
-16.465843 16.5812 -1.2246614
-18.439522 18.575188 6.0426354
-16.577324 16.70512 -0.41079473
-18.788931 18.940388 7.148582
-15.425716 15.577227 -5.874157
-15.185249 15.339752 0.37676254
-15.516703 15.68005 -5.0928917
-16.90593 17.089867 1.2598312
-15.705453 15.876328 -4.3409047
-17.112503 17.304728 2.1292148
-15.857955 16.041685 -3.5726502
-17.346594 17.553698 3.0301595
-15.926137 16.12191 -2.7825208
-17.560955 17.783031 3.9584177
-16.081253 16.284616 -2.002316
-17.870771 18.103083 4.9446244
-16.248131 16.465097 -1.2123101
-18.107365 18.355564 5.9526548
-16.359079 16.589104 -0.40667596
-18.477638 18.737452 7.0512662
-15.195158 15.451912 -5.8068643
-15.113387 15.374126 0.3763088
-15.303432 15.572886 -5.0407033
-16.669817 16.969252 1.2466425
-15.498598 15.776996 -4.2989268
-16.867723 17.17671 2.1062057
-15.613663 15.905229 -3.5301001
-17.090561 17.415785 2.9960361
-15.722409 16.027193 -2.7566845
-17.280247 17.62138 3.9089844
-15.859701 16.172792 -1.9817473
-17.606815 17.960667 4.8889079
-16.008831 16.336269 -1.1987027
-17.808624 18.17922 5.8752718
-16.130381 16.471802 -0.4024176
-18.158009 18.542349 6.9539499
-15.014255 15.374938 -5.7582059
-15.017723 15.383861 0.37526163
-15.085655 15.458845 -4.9867148
-16.420954 16.827177 1.2321978
-15.287147 15.670793 -4.2554221
-16.624048 17.047195 2.0831966
-15.409127 15.806869 -3.4963102
-16.841246 17.281986 2.9628875
-15.477984 15.888596 -2.723536
-17.039768 17.491812 3.8676858
-15.628009 16.048203 -1.959784
-17.338596 17.811001 4.8316655
-15.792916 16.228874 -1.1867702
-17.535797 18.026159 5.8059869
-15.905491 16.355974 -0.398229
-17.885763 18.392334 6.8742337
-14.804488 15.26638 -5.6981602
-14.941663 15.413216 0.37470317
-14.885138 15.360271 -4.9381256
-16.189631 16.712238 1.2194278
-15.062967 15.549206 -4.2081017
-16.389801 16.924782 2.0612333
-15.186235 15.687407 -3.4581404
-16.609642 17.163782 2.9326639
-15.259564 15.77417 -2.6947749
-16.780548 17.352507 3.8232584
-15.422311 15.947974 -1.9409584
-17.074368 17.66251 4.7751861
-15.566845 16.108683 -1.1740001
-17.294044 17.902254 5.7465997
-15.659382 16.215765 -0.39348197
-17.608921 18.240942 6.7934823
-14.574262 15.139609 -5.630867
-14.88507 15.467876 0.37470317
-14.674724 15.254622 -4.8868365
-15.934574 16.564259 1.2045643
-14.837132 15.428838 -4.1607809
-16.137112 16.786524 2.0371783
-14.9945 15.603379 -3.427479
-16.359592 17.029852 2.8995154
-15.05315 15.675359 -2.6684511
-16.547205 17.23719 3.7844627
-15.206462 15.84054 -1.9210869
-16.827364 17.535156 4.7240491
-15.361139 16.012852 -1.162905
-17.03948 17.768606 5.6836133
-15.43932 16.1056 -0.389433
-17.368673 18.118216 6.7251539
-14.398513 15.061919 -5.5832443
-14.804737 15.492272 0.37403998
-14.486775 15.164843 -4.8418465
-15.71938 16.455141 1.1926317
-14.653021 15.34423 -4.1241455
-15.89957 16.655401 2.0145178
-14.781748 15.489851 -3.3911862
-16.113699 16.891508 2.8663669
-14.855865 15.578403 -2.6431024
-16.307018 17.106112 3.7431638
-14.986106 15.72047 -1.9001695
-16.560184 17.377756 4.6660433
-15.137083 15.889949 -1.1501349
-16.762331 17.602182 5.611629
-15.247887 16.017456 -0.38601232
-17.065565 17.926872 6.631979
-14.191564 14.949562 -5.5231986
-14.70652 15.497438 0.37292302
-14.278175 15.051317 -4.7896581
-15.502292 16.347431 1.1806992
-14.46698 15.255678 -4.0867472
-15.685074 16.545961 1.9946463
-14.578124 15.383633 -3.3567708
-15.841668 16.722837 2.8283436
-14.673091 15.494677 -2.6201909
-16.073629 16.973633 3.7024908
-14.794169 15.627996 -1.8827384
-16.313204 17.238672 4.61338
-14.930545 15.78309 -1.1386211
-16.513332 17.462358 5.5486426
-15.029784 15.899109 -0.38189355
-16.800714 17.778685 6.5543337
-14.020031 14.872494 -5.4766111
-14.575535 15.467181 0.37096834
-14.078564 14.945034 -4.7401686
-15.280917 16.221386 1.1679292
-14.281738 15.166016 -4.0493484
-15.460612 16.423624 1.9733803
-14.399792 15.302077 -3.3279867
-15.633581 16.618986 2.8015325
-14.444848 15.360697 -2.5889924
-15.830009 16.839569 3.6605666
-14.600333 15.531471 -1.8649585
-16.043198 17.072325 4.5538473
-14.719469 15.669161 -1.1266885
-16.244171 17.298286 5.4784579
-14.831857 15.799849 -0.37826344
-16.606359 17.69635 6.5025697
-13.817525 14.760564 -5.4176002
-14.410782 15.399697 0.36814106
-13.925133 14.885928 -4.705976
-15.044097 16.082098 1.1541125
-14.078526 15.055172 -4.0066071
-15.24536 16.308655 1.9531602
-14.206023 15.202147 -3.2954485
-15.410153 16.496481 2.7717965
-14.261077 15.271743 -2.5655935
-15.601508 16.70717 3.6205192
-14.3856 15.410482 -1.8443898
-15.838847 16.973202 4.5126328
-14.536619 15.583162 -1.1168493
-16.029522 17.189558 5.4262695
-14.599356 15.661371 -0.37372583
-16.307421 17.499811 6.4093947
-13.644909 14.678533 -5.3699775
-14.576097 15.685749 0.37376073
-13.727194 14.777391 -4.656487
-14.849217 15.985255 1.143436
-13.889624 14.957482 -3.9676824
-15.031102 16.192387 1.93294
-14.007755 15.09526 -3.2616587
-15.206673 16.392994 2.7454727
-14.078103 15.181695 -2.5421946
-15.387287 16.593506 3.5842264
-14.196273 15.314487 -1.8269587
-15.606029 16.841183 4.4630222
-14.332835 15.472636 -1.1053354
-15.784054 17.045227 5.3632832
-14.403322 15.55962 -0.37009573
-16.088785 17.386478 6.3472781
-13.457312 14.578443 -5.316143
-14.442601 15.651297 0.37173626
-13.561894 14.702032 -4.6177955
-14.652491 15.884315 1.1325501
-13.704238 14.861547 -3.9295204
-14.825946 16.083612 1.9137658
-13.813086 14.990082 -3.2284944
-14.990656 16.273689 2.7167115
-13.860972 15.052589 -2.5124583
-15.160671 16.464022 3.544805
-14.005093 15.214428 -1.8091789
-15.371668 16.704857 4.4126487
-14.130001 15.360879 -1.0938215
-15.542429 16.902266 5.3011966
-14.210886 15.459637 -0.36653543
-15.866312 17.26053 6.2820559
-13.294078 14.502857 -5.2716265
-14.25008 15.551234 0.36817595
-13.389393 14.61708 -4.5764041
-14.451256 15.776305 1.1212455
-13.535604 14.781875 -3.8959382
-14.600209 15.950091 1.8918025
-13.637992 14.904132 -3.1997106
-14.781018 16.158937 2.6889253
-13.711895 14.995404 -2.4949093
-14.95381 16.353569 3.5097637
-13.809409 15.10734 -1.7907019
-15.156992 16.587393 4.3676181
-13.941594 15.262644 -1.0833542
-15.317765 16.775093 5.2445087
-14.027413 15.367364 -0.36318457
-15.576367 17.070263 6.191987
-13.12365 14.412593 -5.2229681
-14.069209 15.456438 0.3648251
-13.204449 14.511499 -4.5296144
-14.240203 15.655267 1.1091036
-13.354406 14.681448 -3.8577762
-14.418559 15.856906 1.8750687
-13.476883 14.826488 -3.1734295
-14.569825 16.034504 2.6601641
-13.517944 14.882096 -2.4685855
-14.750742 16.2393 3.4747224
-13.644051 15.026197 -1.7757111
-14.943561 16.46312 4.3218236
-13.76743 15.172713 -1.0737245
-15.10756 16.655476 5.1914206
-13.831306 15.253806 -0.35941485
-15.392897 16.976 6.140223
-12.959242 14.332216 -5.1774163
-13.878397 15.354138 0.36126482
-13.038743 14.430263 -4.4900231
-14.059626 15.565557 1.0992644
-13.182009 14.593938 -3.8226674
-14.218915 15.747432 1.856243
-13.292688 14.726804 -3.1421428
-14.378123 15.934934 2.6353028
-13.330297 14.778839 -2.4437242
-14.535031 16.120142 3.4378037
-13.46877 14.937599 -1.7596744
-14.728271 16.340187 4.2760296
-13.575341 15.066364 -1.0628386
-14.911083 16.554625 5.1437306
-13.660228 15.17122 -0.35634324
-15.175484 16.859999 6.0781064
-12.787908 14.247353 -5.1297936
-13.685811 15.253086 0.35770452
-12.881671 14.361899 -4.454031
-13.853149 15.450434 1.0875412
-13.002611 14.501828 -3.7860322
-14.017484 15.639207 1.8374174
-13.122622 14.645958 -3.1146102
-14.155395 15.804169 2.6050792
-13.159514 14.697453 -2.4222751
-14.338999 16.014782 3.4046397
-13.283711 14.841375 -1.742592
-14.532137 16.241898 4.2363415
-13.394869 14.976084 -1.0529995
-14.684049 16.423214 5.0861435
-13.479266 15.081036 -0.35306218
-14.941454 16.716978 6.0077076
-12.619842 14.159224 -5.082171
-13.309232 14.937955 0.34922266
-12.714811 14.275806 -4.4135399
-13.668978 15.35251 1.0772834
-12.842249 14.423959 -3.7539761
-13.835644 15.545166 1.8206835
-12.945365 14.549998 -3.0845747
-13.968216 15.705154 2.5807052
-12.986784 14.606814 -2.3998511
-14.143728 15.913674 3.3721013
-13.107408 14.747668 -1.7262067
-14.308446 16.104664 4.1874943
-13.223145 14.888351 -1.043579
-14.468785 16.296585 5.0312552
-13.301767 14.987409 -0.34978113
-14.721102 16.592438 5.9435205
-12.470372 14.085281 -5.0407596
-13.184081 14.896652 0.34723309
-12.556351 14.192373 -4.3748479
-13.490968 15.254129 1.0672349
-12.679892 14.337051 -3.7203939
-13.65205 15.441693 1.8032523
-12.774078 14.453712 -3.0551651
-13.784627 15.602622 2.5563314
-12.833149 14.530768 -2.380352
-13.955055 15.801085 3.3389373
-12.94239 14.659616 -1.7108673
-14.132847 16.013659 4.1516223
-13.046852 14.788339 -1.0335305
-14.26772 16.177858 4.9799666
-13.13562 14.899437 -0.34670952
-14.515596 16.464712 5.8814039
-12.32929 14.024261 -5.00349
-13.121441 14.930567 0.34695384
-12.388406 14.101427 -4.333457
-13.321661 15.169067 1.0580237
-12.515765 14.251411 -3.6868114
-13.456104 15.327549 1.7844267
-12.621916 14.382406 -3.0307612
-13.593931 15.495451 2.5309825
-12.65408 14.429214 -2.3564656
-13.772037 15.709528 3.3089018
-12.783441 14.581853 -1.6965737
-13.931941 15.897525 4.108881
-12.879334 14.701588 -1.0243193
-14.093046 16.09269 4.9385753
-12.96762 14.812793 -0.34363788
-14.302484 16.343349 5.8192873
-12.168462 13.939144 -4.9579377
-12.98904 14.884371 0.34482464
-12.235342 14.025636 -4.2970152
-13.134736 15.061936 1.0473472
-12.362715 14.176641 -3.6562819
-13.287308 15.242264 1.7690873
-12.470407 14.310216 -3.0063574
-13.430231 15.417077 2.5105085
-12.499345 14.353535 -2.3369665
-13.566789 15.579327 3.2719834
-12.617343 14.494143 -1.6812342
-13.747484 15.797958 4.0707192
-12.702097 14.601794 -1.0142708
-13.888452 15.971206 4.8863869
-12.787267 14.710068 -0.3402172
-14.108794 16.23031 5.7623472
-12.003317 13.847238 -4.910315
-12.830932 14.80721 0.34199736
-12.089339 13.956315 -4.2628226
-12.967027 14.974825 1.038136
-12.20777 14.098007 -3.6249893
-13.114056 15.149962 1.7530506
-12.304048 14.219218 -2.9781992
-13.230882 15.295712 2.4832098
-12.342695 14.273949 -2.3169799
-13.370083 15.467546 3.2381935
-12.457227 14.411484 -1.6665921
-13.556193 15.688386 4.0302677
-12.56227 14.543264 -1.0071532
-13.70271 15.869142 4.840497
-12.63131 14.633513 -0.33742481
-13.905337 16.115173 5.7033367
-11.849045 13.766063 -4.8668332
-12.64874 14.700327 0.33850688
-11.938888 13.880237 -4.2268305
-12.794878 14.880671 1.0285062
-12.050967 14.015489 -3.5929334
-12.915637 15.02642 1.7335278
-12.143626 14.133229 -2.9512925
-13.058414 15.203263 2.4607859
-12.197102 14.205495 -2.2989433
-13.215771 15.3919 3.2131639
-12.297843 14.327884 -1.65195
-13.355608 15.565754 3.9867632
-12.404804 14.462713 -0.99857002
-13.517851 15.765978 4.7946067
-12.457826 14.534795 -0.33414379
-13.695929 15.979314 5.6391492
-11.718081 13.710415 -4.8326693
-12.485639 14.613639 0.33550507
-11.794177 13.809208 -4.1926379
-10.504493 12.303528 0.84784251
-11.902538 13.941008 -3.5631671
-12.772567 14.965329 1.7213259
-11.994212 14.058317 -2.9268889
-12.902212 15.127923 2.4412868
-12.039257 14.121094 -2.2784693
-13.036366 15.290624 3.1825027
-12.144365 14.249413 -1.638005
-13.194242 15.486747 3.9547071
-12.245465 14.378201 -0.98977762
-13.3642 15.69733 4.7595143
-12.30333 14.456365 -0.3313514
-13.527381 15.894618 5.5925617
-11.57515 13.639293 -4.7933288
-12.325885 14.529043 0.33257306
-11.64759 13.734365 -4.1575456
-10.359449 12.219767 0.83957338
-11.752238 13.862668 -3.5326378
-12.604319 14.873024 1.7056379
-11.848025 13.98555 -2.9031107
-12.713343 15.012293 2.4154503
-11.877022 14.029705 -2.2570202
-12.873046 15.211638 3.1562219
-11.999309 14.179173 -1.625106
-13.003161 15.370831 3.9134924
-12.071392 14.274453 -0.97972912
-13.138224 15.541486 4.6983275
-12.165025 14.395362 -0.32897785
-13.344629 15.791236 5.539763
-11.435349 13.570296 -4.7550235
-12.17074 14.4481 0.32974577
-11.51171 13.670595 -4.1260524
-10.337311 12.280301 0.84124815
-11.607689 13.789457 -3.5036347
-12.436872 14.779729 1.6899499
-11.702493 13.911935 -2.8793328
-12.558656 14.935032 2.3959513
-11.73601 13.96167 -2.239471
-12.687705 15.099197 3.1236835
-11.842073 14.092841 -1.6104639
-12.845883 15.292859 3.8821998
-11.934155 14.212495 -0.97261143
-12.971134 15.452918 4.6578364
-11.999017 14.299871 -0.32583642
-13.169959 15.700911 5.4911051
-11.286254 13.488638 -4.7125773
-12.020161 14.370853 0.32702318
-11.36642 13.594085 -4.09096
-10.255956 12.270336 0.838108
-11.461277 13.712396 -3.4738686
-12.265122 14.679331 1.6735646
-11.565218 13.846572 -2.8574319
-12.399575 14.850781 2.3754773
-11.595618 13.892823 -2.2219219
-12.518494 15.003852 3.0948994
-11.688143 14.008646 -1.5961703
-12.696854 15.223022 3.8531969
-11.774478 14.122141 -0.96360964
-12.794843 15.351398 4.6137462
-11.849186 14.221835 -0.32311386
-12.984268 15.584203 5.4351997
-11.152684 13.423937 -4.6763425
-11.867715 14.289657 0.32423082
-11.236742 13.53472 -4.0612664
-10.177347 12.263028 0.83517718
-11.325576 13.646567 -3.4471552
-12.112036 14.599384 1.6596197
-11.418455 13.768258 -2.8330281
-12.236169 14.759491 2.3540282
-11.458385 13.826224 -2.2048602
-12.347585 14.904468 3.0654898
-11.540029 13.929687 -1.582574
-12.520921 15.119068 3.8157983
-11.643599 14.064693 -0.95691061
-12.61942 15.248838 4.5696559
-11.687301 14.12752 -0.32004222
-12.823889 15.501419 5.3906832
-11.022164 13.361449 -4.6411433
-11.715984 14.207572 0.32143843
-11.077868 13.438529 -4.0207753
-10.135355 12.295169 0.83507252
-11.192972 13.582991 -3.4212053
-11.959659 14.518548 1.6456747
-11.262336 13.67689 -2.8061213
-12.088693 14.685634 2.3355041
-11.309146 13.743509 -2.1853611
-12.197679 14.823304 3.0404603
-11.402735 13.862175 -1.5703722
-12.348364 15.017106 3.7791629
-11.485362 13.972562 -0.94790882
-12.454768 15.157289 4.5291643
-11.561759 14.075516 -0.31794795
-12.659343 15.411736 5.3440957
-10.889769 13.295226 -4.6049085
-11.571306 14.13234 0.31882057
-10.951897 13.380604 -3.9919815
-10.075046 12.313684 0.83381647
-11.051005 13.506499 -3.3922024
-11.820608 14.45225 1.6334729
-11.132002 13.615187 -2.7854722
-11.929319 14.595557 2.3145425
-11.153089 13.650699 -2.1643996
-12.033304 14.733276 3.0129278
-11.266055 13.793876 -1.5581703
-12.196539 14.938457 3.7486336
-11.340541 13.894971 -0.93995374
-12.29091 15.064775 4.4886732
-11.421557 14.004213 -0.31543478
-12.453842 15.275361 5.2809439
-10.757971 13.228243 -4.5686736
-11.42982 14.059377 0.3162725
-10.83384 13.331038 -3.9658871
-10.029119 12.340827 0.83339775
-10.919614 13.441375 -3.3662522
-11.664583 14.363508 1.6188308
-11.007216 13.558877 -2.7660742
-11.758215 14.489136 2.2911437
-11.027834 13.593967 -2.1492877
-11.877289 14.646311 2.9866469
-11.135011 13.730982 -1.5466658
-12.042942 14.855883 3.7173409
-11.206462 13.828956 -0.93283606
-12.120491 14.96222 4.4454827
-11.266894 13.913456 -0.3125028
-12.305859 15.196469 5.2395329
-10.626774 13.160502 -4.5324392
-11.296522 13.994934 0.31393388
-10.701578 13.262611 -3.9343939
-9.9859791 12.37576 0.83339775
-10.786347 13.372441 -3.3395391
-11.504321 14.26765 1.6034913
-10.870565 13.486483 -2.7435477
-11.632837 14.437346 2.2765193
-10.905602 13.53962 -2.1346633
-11.734416 14.573823 2.9634945
-10.982054 13.63941 -1.5320237
-11.875299 14.754067 3.6814687
-11.080496 13.77151 -0.92634642
-11.970481 14.882956 4.4094906
-11.118017 13.828025 -0.30971041
-12.148634 15.109854 5.1950159
-10.491348 13.085979 -4.4941339
-11.147556 13.909449 0.31114149
-10.574801 13.19951 -3.9047005
-9.9293165 12.398247 0.83245569
-10.643878 13.290484 -3.3097727
-11.357324 14.186402 1.589895
-10.729617 13.407131 -2.7197697
-11.490604 14.363157 2.2584827
-10.761568 13.456681 -2.1156518
-11.58979 14.492324 2.9390907
-10.852265 13.57495 -1.5205191
-11.733028 14.681937 3.653229
-10.935122 13.688389 -0.91818202
-11.823606 14.805874 4.3743982
-10.987342 13.763605 -0.30740669
-11.982314 15.01536 5.1473932
-10.371012 13.028811 -4.4620404
-11.003061 13.827789 0.30845383
-10.436465 13.120435 -3.870508
-9.8297119 12.357641 0.82753617
-10.531439 13.244577 -3.2891655
-11.248226 14.151095 1.5815281
-10.609018 13.351707 -2.7009976
-11.336686 14.272609 2.2380087
-10.642935 13.403996 -2.1015151
-11.430981 14.401643 2.912184
-10.72554 13.512874 -1.5093632
-11.571882 14.584388 3.6188834
-10.797913 13.61381 -0.91064566
-11.6532 14.69741 4.330308
-10.86222 13.704711 -0.3052426
-11.845849 14.951101 5.1111584
-10.265448 12.984327 -4.435123
-10.871593 13.755948 0.30604541
-10.325248 13.069341 -3.8453133
-9.7738209 12.371364 0.82628006
-10.409586 13.180822 -3.2647419
-11.097534 14.056959 1.5668859
-10.483916 13.284472 -2.6803482
-11.193393 14.188561 2.218997
-10.514839 13.333223 -2.0849407
-11.295162 14.322703 2.8890316
-10.601728 13.448228 -1.4982072
-11.433533 14.508574 3.5906436
-10.671136 13.545994 -0.90373731
-11.500712 14.604305 4.2916164
-10.735078 13.636953 -0.30293888
-11.683905 14.847594 5.0625005
-10.146107 12.925865 -4.4030294
-10.748208 13.697848 0.30391622
-10.19778 13.001037 -3.8147199
-9.7231808 12.395976 0.82565206
-10.276293 13.105842 -3.2372653
-10.947612 13.967027 1.5525924
-10.354634 13.215252 -2.6590731
-11.058113 14.118153 2.2019353
-10.367884 13.24168 -2.064954
-11.15011 14.240726 2.8646278
-10.476128 13.38474 -1.4870512
-11.288456 14.427792 3.5608776
-10.540115 13.476182 -0.89661962
-11.35604 14.524615 4.2565241
-10.601213 13.564053 -0.30049554
-11.543993 14.775637 5.0241952
-10.024795 12.858885 -4.3688655
-10.622827 13.630892 0.30164739
-10.083951 12.944081 -3.7881758
-9.6807938 12.426576 0.8255474
-10.157987 13.043811 -3.2136052
-10.800877 13.874336 1.5382988
-10.237964 13.155979 -2.640301
-10.93079 14.051334 2.1858485
-10.270297 13.207039 -2.0542297
-11.003389 14.149755 2.8389726
-10.346089 13.309296 -1.4748495
-11.163452 14.365932 3.536454
-10.412052 13.403804 -0.88950193
-11.216977 14.445215 4.2223315
-10.472794 13.491717 -0.29812202
-11.379059 14.659225 4.9724317
-9.904171 12.796026 -4.3357368
-10.485851 13.552435 0.29909936
-9.9647875 12.883631 -3.7602818
-9.6434669 12.468191 0.82607073
-10.03794 12.982894 -3.1899447
-10.679276 13.817369 1.5278401
-10.1171 13.09472 -2.620903
-10.791884 13.973145 2.1678119
-10.146494 13.142245 -2.0386305
-10.876671 14.088007 2.818949
-10.224095 13.247538 -1.4640422
-11.012503 14.27424 3.5043981
-10.294457 13.348337 -0.88343096
-11.092716 14.388595 4.1944375
-10.345072 13.423654 -0.2958183
-11.238009 14.587585 4.9341264
-9.7865944 12.74032 -4.3046784
-10.356946 13.487684 0.29683053
-9.8439312 12.824225 -3.7323878
-9.5517511 12.448085 0.82230252
-9.9185791 12.926144 -3.1670477
-10.553379 13.758403 1.5170329
-9.9848976 13.021981 -2.5990021
-10.643988 13.886564 2.1483128
-10.025817 13.084803 -2.0240061
-10.740863 14.018017 2.7970483
-10.090667 13.174201 -1.4518404
-10.867016 14.192921 3.4746318
-10.172628 13.290817 -0.87715065
-10.952277 14.314626 4.1611447
-10.218052 13.359824 -0.29358438
-11.088436 14.497828 4.8906446
-9.6811447 12.694526 -4.277761
-10.234636 13.425157 0.29466644
-9.7187853 12.753112 -3.7017946
-9.4683008 12.428922 0.81884837
-9.8091536 12.876355 -3.1464403
-10.415964 13.677859 1.5041338
-9.8747702 12.97188 -2.5821073
-10.518515 13.822532 2.1327136
-9.9079704 13.024924 -2.0093818
-10.605714 13.947222 2.7751474
-9.9770832 13.120531 -1.4420789
-10.736618 14.124486 3.4486818
-10.03917 13.211748 -0.86961424
-10.805586 14.22552 4.1242528
-10.113309 13.318965 -0.29190895
-10.960472 14.439889 4.8575158
-9.5621424 12.629668 -4.2446322
-10.110477 13.358752 0.29243252
-9.6177731 12.712363 -3.6801991
-9.4224482 12.45871 0.81863904
-9.6812496 12.800906 -3.1197271
-10.303272 13.628312 1.4947209
-9.7555876 12.908562 -2.5627093
-10.381653 13.741955 2.114677
-9.7810955 12.951711 -1.9928075
-10.473692 13.868816 2.7526209
-9.861598 13.063049 -1.4319688
-10.599736 14.045912 3.4204421
-9.9304447 13.163799 -0.86417133
