# .PCD v0.7 - Point Cloud Data file format
VERSION 0.7
FIELDS x y z
SIZE 4 4 4
TYPE F F F
COUNT 1 1 1
WIDTH 1495
HEIGHT 1
VIEWPOINT 0 0 0 1 0 0 0
POINTS 1495
DATA ascii
0.15879762 -0.51394469 0.0093893949
0.16322875 -0.52861303 0.028994121
0.1833849 -0.59573191 -0.076533951
0.17223778 -0.55986768 -0.051247578
0.16073067 -0.52311289 -0.028680105
0.14901078 -0.48557305 -0.0088658221
0.1552517 -0.50875801 0.0092846798
0.15730429 -0.51580679 0.028261416
0.17668507 -0.58117431 -0.074584037
0.17086163 -0.56237185 -0.051421888
0.15890369 -0.52367073 -0.028680105
0.16471431 -0.54350245 -0.0099129668
0.1573312 -0.52275431 0.0095290141
0.15359677 -0.51066917 0.0279474
0.16761096 -0.55903089 -0.071659178
0.16927288 -0.56493229 -0.051596198
0.15689178 -0.52427703 -0.028680105
0.16090831 -0.53838307 -0.0098082526
0.15664472 -0.52713406 0.0095988233
0.15067609 -0.50737298 0.027738057
0.16791241 -0.56722635 -0.072634131
0.16616948 -0.56169868 -0.051247578
0.15166526 -0.51332909 -0.028052073
0.15846209 -0.53702348 -0.0097733475
0.15724228 -0.53529805 0.0097384425
0.15011722 -0.51170284 0.0279474
0.16835952 -0.57537186 -0.073609084
0.15937126 -0.54500717 -0.049678773
0.15901016 -0.54447782 -0.029726824
0.15565439 -0.53367925 -0.0097035384
0.15481588 -0.53392309 0.0097035384
0.14721905 -0.50838679 0.027738057
0.17406167 -0.60265601 -0.077021427
0.1591254 -0.55130291 -0.050201707
0.15489581 -0.53735304 -0.029308135
0.15379055 -0.53421932 -0.0097035384
0.14744936 -0.51523507 0.0093544899
0.14544354 -0.5088976 0.027738057
0.17086861 -0.59944183 -0.076533951
0.15883753 -0.55760348 -0.05072464
0.15083317 -0.53020632 -0.028889447
0.14318097 -0.50397575 -0.0091450606
0.14564995 -0.51574665 0.0093544899
0.14203987 -0.50363541 0.027424041
0.17307512 -0.61532211 -0.078483857
0.16228157 -0.57733512 -0.052467756
0.15006106 -0.53457546 -0.029098792
0.14681862 -0.52372718 -0.0094941091
0.14688502 -0.52786106 0.0095639192
0.14010501 -0.50417703 0.027424041
0.17495246 -0.63128603 -0.080433764
0.16219068 -0.58563441 -0.053165004
0.14907214 -0.53899771 -0.029308135
0.14480658 -0.52428705 -0.0094941091
0.14398286 -0.52451384 0.0094941091
0.13623212 -0.49695826 0.027005354
0.17693563 -0.64721149 -0.082383677
0.1590953 -0.58235306 -0.05281638
0.15454927 -0.56649053 -0.030773543
0.14034736 -0.51514244 -0.0093195848
0.14128776 -0.52110356 0.0094242999
0.15420307 -0.57110566 -0.072634131
0.15259376 -0.56553763 -0.051247578
0.15172958 -0.56311631 -0.030564198
0.13976747 -0.51944286 -0.0093893949
0.13120314 -0.49068436 0.0088658221
0.15016554 -0.56396747 -0.071659178
0.15369259 -0.57761925 -0.052293446
0.14514703 -0.54626995 -0.029622151
0.13692775 -0.51606196 -0.0093195848
0.13458756 -0.51047552 0.0092148706
0.15021229 -0.57216829 -0.072634131
0.15116981 -0.57622504 -0.052119136
0.14678234 -0.56029773 -0.030354854
0.13411336 -0.5126676 -0.0092497757
0.13280484 -0.51094222 0.0092148706
0.12544024 -0.48330113 0.026167978
0.14821413 -0.57268912 -0.072634131
0.14766093 -0.57096243 -0.051596198
0.14832142 -0.57434338 -0.031087559
0.13432032 -0.52087802 -0.0093893949
0.13796857 -0.53852254 0.0097035384
0.14228895 -0.55781502 -0.070684217
0.14911182 -0.58498895 -0.05281638
0.14483775 -0.56905097 -0.030773543
0.12954588 -0.5097152 -0.0091799656
0.12923458 -0.51185691 0.0092148706
0.15582685 -0.61991471 -0.078483857
0.14415666 -0.57391173 -0.051770512
0.14236462 -0.56761581 -0.03066887
0.13359547 -0.53344178 -0.0095988233
0.13121699 -0.52785224 0.0094941091
0.15355369 -0.62048173 -0.078483857
0.14587852 -0.58990926 -0.053165004
0.13788934 -0.55843872 -0.030145511
0.13259679 -0.53781092 -0.0096686333
0.13127619 -0.53607625 0.0096337283
0.14010338 -0.57472718 -0.072634131
0.13721697 -0.56331384 -0.05072464
0.13546717 -0.55697596 -0.03004084
0.13449393 -0.55381626 -0.0099478718
0.13325134 -0.55205959 0.0099129668
0.13634177 -0.56746799 -0.071659178
0.14279002 -0.59476322 -0.053513627
0.13222271 -0.55159539 -0.029726824
0.1298639 -0.54259056 -0.0097384425
0.13409792 -0.56419438 0.010122396
0.1407582 -0.59498519 -0.075071514
0.13887964 -0.58750224 -0.05281638
0.12983769 -0.55010974 -0.029622151
0.13163848 -0.55861163 -0.010017681
0.13202915 -0.56468207 0.010122396
0.14487545 -0.62256515 -0.078483857
0.13131054 -0.56471992 -0.05072464
0.13278885 -0.57198262 -0.030773543
0.12778406 -0.55129814 -0.0098780617
0.12916028 -0.56124198 0.010052586
0.13738334 -0.5998472 -0.07555899
0.12667173 -0.55352169 -0.049678773
0.12812224 -0.56076014 -0.030145511
0.12541415 -0.54979122 -0.0098431576
0.12995048 -0.57336861 0.010262015
0.14412849 -0.63902849 -0.080433764
0.12746359 -0.56560057 -0.05072464
0.12582357 -0.55923337 -0.03004084
0.12096071 -0.53849763 -0.0096337283
0.12142029 -0.54454225 0.0097384425
0.13071722 -0.58914065 -0.07409656
0.12635097 -0.5699324 -0.051073264
0.12387072 -0.5596692 -0.03004084
0.11692301 -0.52915359 -0.009459204
0.12284795 -0.56061041 0.010017681
0.13616896 -0.62452728 -0.078483857
0.11577922 -0.53145713 -0.047587037
0.12012078 -0.55231291 -0.029622151
0.11837711 -0.54521191 -0.0097384425
0.11541444 -0.53562301 0.0095639192
0.1264981 -0.59006095 -0.07409656
0.12226942 -0.57082194 -0.051073264
0.11693919 -0.54686952 -0.029308135
0.13066712 -0.61211336 -0.010925206
0.11031973 -0.52035308 0.0092846798
0.13191482 -0.62543964 -0.078483857
0.12284087 -0.58292168 -0.052119136
0.11676972 -0.55507219 -0.029726824
0.12617068 -0.60080123 -0.010715778
0.10279202 -0.49332792 0.008796013
0.12247879 -0.59090835 -0.07409656
0.11676503 -0.56383699 -0.05037602
0.11968347 -0.57894725 -0.030982886
0.12083956 -0.58557057 -0.010436539
0.10989287 -0.5367831 0.0095639192
0.12358422 -0.6068936 -0.076046467
0.11161841 -0.54862201 -0.048981529
0.11607181 -0.57153231 -0.030564198
0.11839749 -0.58402896 -0.010401634
0.11511458 -0.57245153 0.010192205
0.10978568 -0.54892504 -0.068734311
0.1159491 -0.58026856 -0.051770512
0.11485743 -0.57585132 -0.030773543
0.11011072 -0.55305946 -0.0098431576
0.11127701 -0.56302136 0.010017681
0.10337053 -0.52591223 -0.065809444
0.11248855 -0.57282966 -0.051073264
0.11025799 -0.5625093 -0.03004084
0.11288359 -0.57697141 -0.010262015
0.1066449 -0.54966474 0.0097733475
0.10604675 -0.54965961 -0.068734311
0.11199669 -0.58104438 -0.051770512
0.11055777 -0.57465851 -0.03066887
0.11313152 -0.58914483 -0.010471444
0.099398084 -0.52254933 0.0092846798
0.10838662 -0.57361996 -0.051073264
0.10771053 -0.57113457 -0.030459527
0.10875201 -0.57776439 -0.010262015
0.096106172 -0.51503009 0.0091450606
0.10428336 -0.56211513 -0.07019674
0.10783599 -0.58183092 -0.051770512
0.10644281 -0.57543492 -0.03066887
0.10709762 -0.58010697 -0.010296919
0.092148073 -0.50356019 0.0089356322
0.10658393 -0.58591217 -0.073121607
0.10651685 -0.58612436 -0.052119136
0.10728494 -0.59152454 -0.031506244
0.10435966 -0.57654184 -0.01022711
0.094781183 -0.53156114 -0.06629692
0.098879859 -0.55510837 -0.049330149
0.10696732 -0.6017276 -0.032029606
0.1009493 -0.56902677 -0.010087491
0.10447767 -0.59863001 -0.053165004
0.096984141 -0.55684161 -0.029622151
0.098962411 -0.56937569 -0.010087491
0.0950021 -0.55578518 -0.049330149
0.092017345 -0.53945738 -0.028680105
0.09630321 -0.56577498 -0.010017681
0.10040053 -0.59932733 -0.053165004
0.097472511 -0.58309793 -0.030982886
0.089162312 -0.53453213 -0.009459204
0.095084667 -0.58001268 -0.051421888
0.095436521 -0.58343458 -0.030982886
0.087940149 -0.53878725 -0.0095290141
0.089904904 -0.56066847 -0.049678773
0.091506146 -0.57193112 -0.030354854
0.0860589 -0.53909093 -0.0095290141
0.084244221 -0.5373587 -0.047587037
0.087039955 -0.55646092 -0.029517479
0.085409954 -0.54729122 -0.0096686333
0.081346035 -0.52974349 -0.046889789
0.080452129 -0.52514404 -0.027842728
0.077647552 -0.50802201 -0.0089705372
0.077132188 -0.51426142 -0.045495298
0.078618549 -0.52542162 -0.027842728
-37.533867 12.909293 -10.635392
-37.60535 13.080852 -10.668521
-46.757023 16.833565 -13.315722
-45.625298 16.768763 -13.02481
-45.519402 16.910429 -13.011351
-45.595306 17.301823 -13.067256
-43.842686 16.812075 -12.581712
-36.940792 14.328389 -10.616757
-52.701694 20.462807 -13.05211
-36.779034 14.413547 -10.584663
-45.181095 17.724474 -11.204812
-36.722794 14.524756 -10.581558
-45.121567 17.864891 -11.203912
-36.711334 14.668624 -10.592946
-44.396698 17.757412 -11.039248
-38.351021 15.479249 -11.081596
-44.301918 17.899137 -11.03115
-36.769035 14.990195 -10.639533
-44.986141 18.358505 -11.217409
-37.216663 15.324406 -10.784472
-43.988506 18.130753 -10.98436
-60.5462 24.967707 -12.730394
-36.941757 15.362242 -10.720284
-43.8242 18.242254 -10.959166
-36.2939 15.249098 -10.548429
-43.487591 18.289433 -10.89168
-60.724285 25.551085 -12.805955
-36.475201 15.475291 -10.616757
-43.523933 18.483778 -10.916875
-60.457645 25.687658 -12.768557
-36.601273 15.672204 -10.668521
-37.220173 16.091183 -10.865224
-43.307686 18.74091 -10.89438
-58.29958 25.240562 -12.348777
-38.859959 16.961348 -11.361121
-42.997494 18.964155 -10.849389
-43.067295 19.093792 12.623122
-38.617043 17.177265 -11.324886
-39.317101 17.505102 -9.9360876
-45.144821 20.109213 -9.6064701
-42.986107 19.228615 12.617946
-39.312637 17.667799 -9.9504852
-42.957596 19.405125 12.630369
-33.629173 15.240718 -9.8930988
-37.859371 17.173773 -9.5977621
-33.49847 15.322655 -9.8703232
-37.632637 17.229567 -9.5554705
-44.499817 20.383003 -9.5141182
-38.205578 17.653456 -9.7165356
-44.225243 20.444298 -9.4706135
-35.61813 16.593872 -10.528759
-38.708893 18.050253 -9.8605042
-43.954342 20.505587 -9.4278727
-59.131668 27.611252 -10.336251
-44.557484 20.862768 11.358679
-36.244789 17.03233 -10.730638
-35.954323 16.911156 -9.1730537
-43.889656 20.652905 -9.4286356
-59.014763 27.795404 -10.331871
-44.509201 21.020397 11.364078
-40.614208 19.189577 12.03612
-35.803524 16.993107 -9.1496592
-43.774731 20.78577 -9.4194765
-52.491829 24.99235 11.300854
-37.582508 17.917885 11.156137
-34.996326 16.752413 -10.396243
-37.238338 17.841621 -9.5329762
-44.112522 21.144648 -9.5087757
-52.325558 25.148855 11.284825
-40.578491 19.520386 10.395888
-34.944595 16.877832 -10.398314
-36.014362 17.410023 -9.2351408
-40.408421 19.61256 10.369794
-33.363544 16.250868 -9.9438276
-35.809288 17.457621 -9.1973486
-40.297653 19.724176 10.358096
-37.913315 18.565336 11.311427
-33.202583 16.316109 -9.9127693
-35.643211 17.530909 -9.1703548
-45.474319 22.376141 -9.8514681
-44.186726 21.80007 9.577467
-36.795208 18.177334 10.996703
-33.135044 16.42676 -9.9096632
-35.52594 17.627502 -9.1559582
-44.075207 21.936682 9.5698347
-39.722897 19.787796 10.245621
-36.773285 18.334484 11.010162
-32.980743 16.493933 -9.8806763
-35.457222 17.747913 -9.1541586
-47.525356 23.798925 -10.331544
-59.310524 29.726398 -10.507703
-44.036964 22.109779 9.5782299
-39.601345 19.900084 10.232123
-36.077396 18.145041 10.820706
-33.412811 16.856071 -10.027685
-36.616234 18.488169 -9.4699898
-49.879406 25.261497 10.868099
-35.996613 18.262123 10.81553
-33.016304 16.800879 -9.9262276
-36.471596 18.575188 -9.4492941
-44.48225 22.664839 -9.7041636
-45.850166 23.422338 10.007932
-38.413448 19.640238 9.9603825
-35.994556 18.419346 10.834166
-32.964333 16.919552 -9.928299
-37.859119 19.448593 -9.8263121
-57.594204 29.624819 -10.258034
-42.249786 21.7694 9.2385902
-36.060326 18.604151 10.872471
-32.808998 16.984781 -9.8993111
-37.514156 19.437185 -9.7543278
-43.169064 22.376719 -9.4515324
-57.427319 29.792931 -10.24677
-52.930645 27.483538 9.4461384
-40.43148 21.011433 8.8569717
-32.657036 17.050919 -9.8713579
-35.414967 18.506626 -9.2252426
-43.43866 22.709183 -9.5278568
-40.218777 21.079527 8.8264427
-37.099621 19.469477 11.226535
-32.679367 17.208015 -9.8962049
-35.188095 18.544729 -9.1829519
-42.706142 22.516396 -9.3843679
-56.966351 30.060368 -10.201717
-40.124123 21.208778 8.8218632
-35.968521 19.028278 9.3944063
-36.11631 19.122602 10.950116
-32.591408 17.299986 -9.8868876
-35.914604 19.080055 -9.3890076
-42.808071 22.751871 -9.4232931
-56.786129 30.206434 -10.187325
-56.128681 29.881857 10.071251
-38.7229 20.632696 8.5287809
-35.894905 19.141949 9.3917065
-32.759048 17.535814 -9.9562511
-33.580349 17.990536 -8.7951365
-42.638409 22.852934 -9.4034491
-61.587261 33.050484 8.5820389
-38.692146 20.790041 8.5379391
-35.199398 18.945 10.710967
-32.555172 17.580492 -9.913805
-33.521042 18.117199 -8.796936
-42.771961 23.126715 -9.4515324
-57.134888 30.918499 -10.289321
-44.755051 24.239361 8.0613804
-40.90781 22.174164 9.0447283
-37.038265 20.093401 9.7282333
-32.273045 17.573921 -9.8465118
-33.399418 18.202393 -8.7816391
-37.949772 20.742472 8.4066629
-35.188324 19.265045 10.749272
-31.672657 17.383408 -9.6808672
-33.85128 18.594515 -8.9166098
-55.676182 30.595587 -12.348777
-45.35046 24.962557 8.1990433
-37.650356 20.741264 8.355526
-35.96545 19.829433 9.4816866
-31.395428 17.374128 -9.6146097
-33.244061 18.412317 -8.7735415
-42.682674 23.649654 -9.4851151
-55.613636 30.852524 7.8088999
-45.016876 24.994364 8.155242
-37.646378 20.910694 8.3707905
-34.931454 19.434612 10.710967
-31.287354 17.457256 -9.6001158
-33.16938 18.522547 -8.7708416
-42.678699 23.842545 -9.5026693
-44.554501 24.931293 8.0864105
-36.162727 20.268686 9.5707674
-34.73875 19.478537 10.671627
-30.084665 16.924177 -9.249157
-37.31242 21.007313 -9.8856993
-42.280468 23.814098 -9.4324522
-43.05986 24.292698 7.8304834
-37.745655 21.312002 8.4257441
-35.229885 19.907766 9.3422174
-30.139671 17.093895 -9.2843571
-42.197083 23.961538 -9.4324522
-53.209782 30.251936 7.5154386
-42.970531 24.450356 7.8304834
-38.524128 21.929241 8.6165524
-35.153404 20.026762 9.3404179
-35.572037 20.273478 10.970821
-30.059694 17.187492 -9.2781448
-35.338154 20.221975 -9.3998051
-43.601158 25.011057 7.9612627
-38.246414 21.948275 8.5715218
-35.387459 20.324045 9.4214001
-35.135715 20.195774 10.859012
-30.444721 17.548941 -9.4158373
-34.649544 19.9888 -9.2351408
-46.813698 27.017008 -10.506325
-53.540428 30.936504 7.5924602
-41.437603 23.962599 7.58144
-36.776085 21.275496 8.2585945
-35.417488 20.506031 9.4483938
-32.788551 19.052761 -10.161236
-34.431316 20.023418 -9.195549
-42.402031 24.668665 -9.5354891
-53.541893 31.187151 7.6080594
-41.401489 24.134953 7.5902004
-36.467556 21.26725 8.2059317
-35.55439 20.751343 9.5041819
-32.741848 19.178816 -10.167447
-34.115761 19.999594 -9.1298637
-41.641441 24.460205 7.6490197
-36.31863 21.350639 8.1891403
-35.532127 20.90497 9.5176792
-34.909245 20.546705 10.853835
-32.618145 19.259594 -10.149848
-33.901459 20.033298 -9.0911722
-52.639542 31.155745 7.5105639
-41.269379 24.445547 7.5970836
-35.605446 21.098963 8.0448885
-35.680191 21.160086 9.5770664
-34.727379 20.611412 10.820706
-38.424057 22.868992 -11.981251
-33.868156 20.173454 -9.1010695
-41.322872 24.672493 7.6227388
-35.511353 21.211039 8.0403099
-27.86767 16.665247 8.7004614
-38.198212 22.915522 -11.935699
-41.344822 24.881775 7.6427622
-35.494286 21.369297 8.0532846
-27.872198 16.800318 8.7201309
-38.561031 23.31661 -12.074426
-49.855328 30.169678 -13.453423
-40.383736 24.486168 7.4800706
-37.141521 22.538029 8.4448242
-27.830246 16.914402 8.7263432
-40.246525 24.605167 7.4713101
-37.096123 22.688026 8.4524565
-35.557457 21.764036 9.6247559
-38.107594 23.407291 -11.983322
-41.002316 25.254398 7.6271186
-36.996643 22.805016 8.4478779
-35.355217 21.810263 9.5905628
-27.875866 17.209764 8.7781067
-37.726707 23.355101 -11.889112
-56.907578 35.311699 8.2232561
-36.890133 22.917444 8.4417715
-35.318592 21.958237 9.6013613
-34.524307 21.481131 10.895247
-37.681835 23.500525 -11.899465
-40.417454 25.275249 7.5501533
-42.518837 26.610008 9.749958
-35.876469 22.470379 9.7732239
-34.33551 21.513582 10.856941
-40.245422 25.363518 7.5345097
-42.468864 26.785496 9.7598801
-35.029884 22.110758 9.5635691
-33.73378 21.309134 10.691298
-39.504654 25.022083 -12.529947
-42.974903 27.314806 9.8980255
-34.87685 22.18479 9.5428734
-33.457569 21.290203 10.626075
-42.852844 27.447708 9.8919201
-34.85498 22.342154 9.5581703
-33.119144 21.245792 10.543253
-51.282635 33.074745 9.6651468
-42.690792 27.554539 9.8766556
-34.711304 22.421389 9.5401745
-33.025795 21.340824 10.536006
-42.647015 27.737642 9.8888674
-34.472767 22.438236 9.4960842
-33.050953 21.529209 10.569135
-42.482674 27.852861 9.8743658
-34.286018 22.496016 9.4672899
-33.679752 22.106636 10.794825
-42.103439 27.814852 9.8087273
-34.158516 22.583317 9.4537926
-33.456722 22.136124 10.749272
-41.970081 27.916542 9.7980423
-34.067936 22.677559 9.4483938
-40.768826 27.230566 -13.13662
-39.912357 26.870577 -12.892294
-41.99049 28.365616 9.8499422
-41.745152 28.4126 9.8155966
-31.434477 21.419037 10.192294
-39.170231 26.76021 -12.711121
-41.79644 28.650778 9.8499422
-35.672546 24.673218 11.62201
-48.158184 33.520695 11.405416
-48.069813 33.708885 11.412286
-31.391661 22.037884 10.277186
-47.977013 33.881695 11.416865
-31.185904 22.04818 10.233705
-47.864849 34.053509 11.418392
-36.006126 25.730358 -11.858053
-45.748497 32.801041 10.942133
-42.63773 31.012247 10.248351
-21.211552 15.518825 -4.1627212
-42.529217 31.160891 10.248351
-31.773075 23.30551 -0.68779933
-20.737446 15.283378 -4.0801239
-41.800983 30.852139 10.098757
-31.283022 23.114437 -0.6789335
-20.484125 15.207308 -4.0407023
-30.906984 23.003809 -0.67251104
-20.444069 15.294117 -4.0438309
-30.694483 23.020948 -0.66971862
-18.920019 14.241732 -5.4672103
-36.994968 27.847349 2.4267137
-20.456816 15.415317 -4.0569715
-30.511822 23.050806 -0.66748476
-18.901588 14.321106 -5.4748588
-18.933456 14.350452 -4.6179595
-20.452354 15.512933 -4.0657315
-30.308731 23.047295 -0.66462255
-18.868525 14.400002 -5.4798079
-18.88949 14.421221 -4.6194859
-20.438892 15.615411 -4.0738664
-39.100601 29.9163 9.5698347
-29.929642 22.924353 -0.65806043
-18.175423 13.971709 -5.2926483
-18.851486 14.496644 -4.6225386
-20.440617 15.730031 -4.0851297
-30.829399 23.741835 -4.7777658
-29.510618 22.767288 -0.65059078
-18.010979 13.945589 -5.2589059
-18.14888 14.057432 -4.4622593
-20.432423 15.837591 -4.0945158
-30.118925 23.362633 -4.6802702
-37.240685 28.907663 9.1637926
-29.453072 22.887339 -0.65107948
-17.88382 13.947255 -5.235961
-18.002182 14.044618 -4.4382172
-20.436182 15.955011 -4.1064048
-29.347805 22.970291 -0.65052098
-17.752272 13.944592 -5.2116661
-17.875862 14.046721 -4.4191365
-20.436266 16.070208 -4.1176682
-28.866211 22.715469 -4.5101409
-29.495922 23.219339 -3.2842028
-29.110405 22.948793 -0.64703053
-17.640539 13.966686 -5.1945696
-17.755619 14.062841 -4.4027267
-20.430141 16.19273 -4.128931
-28.312197 22.456066 -4.4370189
-17.517021 13.968643 -5.1725245
-17.643497 14.074537 -4.3870802
-20.407457 16.291059 -4.1358142
-27.728025 22.150843 -4.3575602
-28.294559 22.611517 -3.1688085
-29.050692 23.249029 -0.64947385
-17.413778 13.976035 -5.1549783
-17.547142 14.088107 -4.3741055
-20.420853 16.407055 -4.1489549
-27.123016 21.807467 -4.2732267
-27.67379 22.258251 -3.1071022
-28.510305 22.963867 -0.63900238
-32.349941 26.056532 11.130254
-17.325483 14.004884 -5.143281
-17.441376 14.103598 -4.3599854
-20.415667 16.520485 -4.1595926
-26.617857 21.554716 -4.2054672
-31.357096 25.392477 6.3906608
-27.177923 22.016104 -3.0600381
-27.864697 22.604677 -0.62629706
-17.245327 14.044909 -5.1347327
-17.33325 14.121547 -4.3458657
-20.403973 16.635145 -4.1696043
-26.08647 21.283188 -4.1338081
-26.621634 21.727552 -3.0063503
-27.261421 22.28145 -0.61456907
-28.190584 23.131298 1.9110998
-17.256531 14.15955 -4.3389964
-28.713814 23.569012 3.2500377
-20.388527 16.741365 -4.1783648
-25.677666 21.099379 -4.0806732
-26.114668 21.466101 -2.9575429
-26.55814 21.84617 -1.802241
-26.501074 21.814743 -0.59914112
-17.903641 14.784882 -5.3605838
-27.651781 22.843046 1.8796982
-28.097958 23.219883 3.1890287
-20.384663 16.851679 -4.189002
-25.206818 20.852894 -4.0168138
-25.601276 21.186745 -2.9073412
-26.027151 21.554497 -1.7710488
-26.243826 21.749384 -0.59495252
-26.63249 22.142145 0.60455137
-17.833942 14.832334 -5.355185
-27.111271 22.556211 1.8482966
-17.692503 14.719925 -4.4737077
-27.511377 22.897221 3.1315057
-20.392511 16.978344 -4.2027683
-24.746494 20.618002 -3.9549038
-25.123114 20.939219 -2.8613231
-25.491617 21.261436 -1.7396472
-25.750168 21.492329 -0.5854584
-17.752573 14.875071 -5.3470864
-26.5333 22.232534 1.8141736
-17.638433 14.784672 -4.4737077
-27.036432 22.670183 3.0868821
-20.378576 17.093596 -4.21278
-24.65254 20.700605 -2.8163507
-25.1077 21.09775 -1.7187128
-25.245741 21.228783 -0.57575488
-22.764097 19.196327 -7.9788737
-25.55933 21.561102 0.58367831
-17.706499 14.941975 -5.348886
-26.057884 21.997242 1.7871683
-17.559715 14.823356 -4.4668384
-26.403044 22.296509 3.0234327
-20.32482 17.169725 -4.2140317
-23.810013 20.128145 -3.8281598
-24.218054 20.480337 -2.7748644
-24.576523 20.798201 -1.6873112
-24.777775 20.983358 -0.56674945
-22.402454 19.025566 -7.8753457
-25.102917 21.326511 0.57495207
-17.651264 15.001167 -5.3479862
-25.537357 21.703272 1.7563947
-17.473461 14.855312 -4.4580612
-25.948656 22.068422 2.9802034
-20.3099 17.278969 -4.2234178
-23.770243 20.244373 -2.7316353
-24.199757 20.624756 -1.6663768
-24.302706 20.727146 -0.55753458
-22.045219 18.855028 -7.7728534
-24.64846 21.089001 0.56622589
-17.583986 15.050018 -5.3434873
-25.097275 21.480593 1.7312734
-17.428957 14.922601 -4.4599695
-25.438684 21.788191 2.9303503
-20.396467 17.475714 -4.2540789
-23.066113 19.777035 -3.7306643
-23.357649 20.034075 -2.692241
-23.70326 20.344873 -1.6370687
-23.857037 20.491329 -0.54894799
-28.254498 24.268402 9.9800625
-21.645538 18.644407 -7.6548319
-24.171732 20.827696 0.55694121
-17.543154 15.121485 -5.3470864
-24.594849 21.207241 1.7019653
-17.344051 14.955143 -4.4515738
-25.039616 21.59837 2.8930478
-20.402643 17.604876 -4.268158
-22.591269 19.507141 -3.664855
-22.995068 19.862822 -2.6584244
-26.565231 22.954777 6.8244743
-23.299679 20.140146 -1.6140409
-23.443563 20.278822 -0.54105949
-21.329325 18.502119 -7.5657983
-23.715258 20.579052 0.54807538
-24.177486 20.987553 1.6778908
-24.588037 21.358992 2.8494699
-20.472279 17.790009 -4.2956905
-22.232439 19.333178 -3.6175697
-22.549788 19.616055 -2.6148467
-25.98436 22.611757 6.6954875
-22.882753 19.919739 -1.5899663
-23.022821 20.055799 -0.53296161
-16.643892 14.539867 -5.9217796
-23.312014 20.372219 0.54039633
-16.609684 14.520208 -5.0933418
-23.722143 20.737932 1.6513041
-24.063463 21.051138 2.7971764
-20.43384 17.882177 -4.3006964
-21.869127 19.151716 -3.5693092
-22.175455 19.426821 -2.5792871
-25.518429 22.363308 6.5955038
-22.440622 19.67297 -1.5640078
-22.627977 19.851191 -0.52542216
-16.581434 14.587669 -5.9176388
-22.880484 20.136402 0.53201914
-16.53257 14.55492 -5.0852437
-23.295826 20.509146 1.6266016
-16.597157 14.616925 -4.2989268
-23.69084 20.871592 2.7623141
-20.403898 17.982128 -4.3075795
-21.504379 18.965332 -3.5205617
-24.474775 21.585009 5.1685948
-21.757898 19.195671 -2.5384982
-25.075159 22.130072 6.5008626
-22.087339 19.500031 -1.5441201
-22.23185 19.641426 -0.51781291
-16.538418 14.64225 -5.918674
-22.502743 19.92976 0.52468914
-16.472176 14.593863 -5.0807447
-22.854555 20.248465 1.6002243
-16.498262 14.622116 -4.2851882
-23.270336 20.631338 2.7208281
-20.403465 18.095949 -4.3194685
-21.156666 18.777164 -3.4732764
-24.016806 21.315624 5.0859971
-21.420364 19.017889 -2.5060763
-24.565145 21.817625 6.3863769
-21.70645 19.28544 -1.5217203
-21.892069 19.464035 -0.51132059
-16.495857 14.707604 -5.9217796
-22.080843 19.694063 0.5164516
-16.392052 14.625326 -5.0717463
-22.50058 20.07548 1.5803366
-16.561367 14.781586 -4.3149548
-22.850405 20.401934 2.6800392
-20.679029 18.469713 -4.3914285
-20.794977 18.586327 -3.4245286
-23.64769 21.136049 5.0234237
-21.077587 18.845537 -2.4736543
-24.158125 21.607445 6.3001313
-21.368101 19.118713 -1.5026699
-21.514116 19.262884 -0.50406039
-16.457354 14.776712 -5.9264383
-21.714424 19.503771 0.50947064
-16.393084 14.729343 -5.0879431
-22.091143 19.856073 1.5566807
-22.482737 20.215145 2.6451769
-20.364756 18.317211 -4.3382406
-20.45849 18.414444 -3.3796806
-23.206711 20.888084 4.9452062
-20.748123 18.681694 -2.442627
-23.66535 21.315857 6.1909885
-20.989639 18.912426 -1.4806889
-21.170511 19.088793 -0.4975681
-16.424301 14.850913 -5.9331679
-21.340708 19.303116 0.50228024
-16.311224 14.759019 -5.078495
-21.734432 19.673046 1.5363743
-16.363159 14.811208 -4.2901497
-22.01918 19.937778 2.59881
-20.031305 18.144176 -4.2806726
-22.400858 20.297613 3.7116528
-20.191118 18.301767 -3.3460448
-22.822689 20.694351 4.8795037
-20.393494 18.491692 -2.4084618
-23.302877 21.137171 6.1154284
-20.633589 18.722525 -1.4601731
-20.801739 18.888344 -0.49044752
-16.40093 14.934167 -5.9435205
-21.007097 19.135105 0.4959974
-16.26969 14.825054 -5.0816445
-21.355656 19.466246 1.5143932
-16.330221 14.885429 -4.2951107
-21.640282 19.732605 2.5622046
-19.710989 17.979691 -4.2256079
-21.98674 20.062582 3.6546178
-19.784035 18.058975 -3.2890098
-22.403788 20.4503 4.8044152
-20.066933 18.323627 -2.3774343
-22.828878 20.852938 6.0101018
-20.326305 18.573483 -1.443007
-23.199459 21.206303 7.2564712
-20.446434 18.696352 -0.48360619
-16.36294 15.004382 -5.9486971
-20.610085 18.905525 0.4881787
-16.226456 14.889661 -5.0843439
-21.025675 19.300262 1.4957616
-16.294071 14.956945 -4.2993083
-21.304178 19.562765 2.5304799
-19.415346 17.834574 -4.1755486
-21.562845 19.814165 3.595633
-19.53381 17.955967 -3.2578113
-22.03787 20.26486 4.7418413
-19.744728 18.156208 -2.3467555
-22.420729 20.62414 5.9215665
-20.005619 18.409002 -1.4247941
-22.766851 20.957203 7.1439958
-20.125088 18.531914 -0.47753274
-16.29932 15.05639 -5.945591
-20.282169 18.742081 0.48203546
-20.638052 19.084301 1.4731525
-16.259321 15.035226 -4.3046508
-20.928118 19.359304 2.4942231
-19.100471 17.67485 -4.1217351
-21.210381 19.634151 3.5488353
-19.211519 17.790062 -3.2149134
-21.651031 20.049074 4.673636
-19.429571 17.99828 -2.3171225
-22.0397 20.423281 5.8406634
-19.659712 18.224222 -1.4049064
-22.304077 20.682743 7.022522
-19.822462 18.387959 -0.47194797
-16.300415 15.163193 -5.9652615
-20.002893 18.613876 0.47693935
-16.176548 15.058504 -5.1023397
-20.305288 18.908503 1.4541022
-16.222546 15.106607 -4.3088489
-20.592169 19.18236 2.4621496
-18.804543 17.523251 -4.0710506
-20.897772 19.480669 3.5078871
-18.902496 17.626863 -3.1734776
-21.265398 19.837244 4.6060562
-19.156834 17.870287 -2.2920218
-21.632399 20.186661 5.7513647
-19.359459 18.071949 -1.3879496
-21.975372 20.521067 6.9415398
-19.503891 18.219519 -0.46587452
-16.241911 15.220193 -5.9642262
-19.651506 18.421747 0.47016782
-16.135462 15.131023 -5.1068387
-19.973652 18.736837 1.4352612
-16.29307 15.284165 -4.3424311
-20.236961 18.990482 2.4279847
-18.503992 17.370329 -4.0197401
-20.531029 19.279921 3.4581645
-18.586014 17.459536 -3.1310673
-20.873518 19.608397 4.5359735
-18.815344 17.681147 -2.2589025
-21.275038 19.999563 5.6758041
-19.045746 17.910183 -1.3701553
-21.616131 20.334425 6.8515592
-19.189413 18.057911 -0.45994073
-16.133886 15.225086 -5.9440384
-16.073914 15.173796 0.38583779
-16.072628 15.177889 -5.1036897
-19.643885 18.556824 1.416211
-16.188242 15.292411 -4.3286929
-19.898306 18.803741 2.3952141
-18.248018 17.250261 -3.9771898
-20.235718 19.135967 3.4196539
-18.337486 17.346962 -3.0993812
-20.5289 19.426796 4.4765286
-18.545122 17.549517 -2.2338016
-20.9228 19.806469 5.600244
-18.75688 17.762321 -1.3538265
-18.908539 17.918463 -0.454705
-16.084576 15.274366 -5.9435205
-15.872485 15.078229 0.38213789
-19.3423 18.387264 1.3986261
-16.060436 15.267444 -4.307322
-19.611015 18.649229 2.3676729
-17.953291 17.078772 -3.9246278
-19.887896 18.925755 3.3709061
-18.058603 17.190966 -3.061358
-20.207912 19.237011 4.4189606
-18.259043 17.387852 -2.2059119
-20.561958 19.587732 5.5201044
-18.469645 17.600702 -1.337079
-18.61482 17.75145 -0.4489806
-16.014406 15.314397 -5.9373088
-15.725832 15.043693 0.37986907
-19.032732 18.219877 1.3808318
-16.009882 15.326127 -4.3080854
-19.266634 18.450235 2.3338566
-17.699566 16.955492 -3.8820777
-19.580927 18.764318 3.329958
-17.797865 17.061577 -3.0272346
-19.849737 19.028564 4.3551354
-18.005541 17.266693 -2.182554
-20.215773 19.393003 5.4453073
-18.183289 17.449335 -1.3207502
-20.568504 19.745171 6.5825176
-18.336391 17.608557 -0.4437449
-20.984602 20.151651 7.7956295
-15.967809 15.376904 -5.9398971
-15.635779 15.062423 0.37896156
-15.940616 15.361445 -5.110888
-18.733198 18.058872 1.3636657
-15.973247 15.39827 -4.312665
-18.986988 18.309921 2.3077097
-17.432707 16.816938 -3.8363988
-19.255333 18.581675 3.2855976
-17.50112 16.894733 -2.986774
-19.535456 18.86517 4.301322
-17.733046 17.124603 -2.1567559
-19.874025 19.198828 5.371273
-17.906836 17.304514 -1.3050494
-20.219236 19.545959 6.4925375
-18.018942 17.425016 -0.43753183
-16.675413 16.170891 -6.2240806
-15.564447 15.098809 0.37850779
-18.426424 17.887655 1.3458714
-15.947573 15.481282 -4.3202972
-18.694265 18.154003 2.27982
-17.178368 16.68774 -3.7932229
-18.956881 18.42189 3.2456243
-17.285469 16.803514 -2.9599626
-19.248562 18.718409 4.2525144
-17.450336 16.969711 -2.1295633
-19.564844 19.032623 5.305635
-17.654518 17.180264 -1.2910234
-17.7689 17.303654 -0.43292439
-16.430857 16.051006 -6.154717
-15.480399 15.127803 0.3778097
-16.528433 16.157606 -5.3362889
-18.160824 17.759573 1.3312174
-16.744144 16.374193 -4.552321
-18.374088 17.9744 2.2487924
-16.93355 16.570982 -3.7525499
-18.684963 18.291281 3.210526
-16.996838 16.644533 -2.9209645
-18.911715 18.526188 4.1930695
-17.188765 16.83836 -2.1051598
-19.245359 18.859613 5.2377071
-17.368935 17.026743 -1.2746946
-19.522305 19.144369 6.3125763
-17.491234 17.158609 -0.42768866
-16.214975 15.951109 -6.0946708
-15.394717 15.149487 0.37700689
-16.313614 16.059353 -5.2849998
-17.88526 17.61265 1.3155166
-16.519024 16.267237 -4.5065269
-18.09833 17.828695 2.2226458
-16.667366 16.424784 -3.7062454
-18.366539 18.105547 3.1666529
-16.769022 16.536501 -2.8917158
-18.613489 18.361803 4.1411333
-16.939819 16.710764 -2.0818021
-18.916698 18.667427 5.1659627
-17.130302 16.910475 -1.2615058
-17.251984 17.042488 -0.42329067
-19.598152 19.360167 7.3815193
-15.983541 15.828079 -6.0273781
-15.334451 15.190603 0.37676254
-16.083092 15.937784 -5.2274127
-17.588665 17.429756 1.2977223
-16.317196 16.175419 -4.4660754
-17.812752 17.664146 2.194756
-16.438911 16.307457 -3.6674497
-18.109131 17.970594 3.1325295
-16.567575 16.446573 -2.8663669
-18.314583 18.18082 4.0873199
-16.717489 16.601185 -2.0612333
-18.623482 18.500374 5.1026139
-16.870127 16.76446 -1.2464331
-16.994026 16.899378 -0.41833419
-19.276314 19.168955 7.2842031
-15.755834 15.711897 -5.9621553
-15.25868 15.221441 0.37620407
-15.86459 15.831398 -5.174324
-17.346561 17.316313 1.2845337
-16.074448 16.046417 -4.4149384
-17.545151 17.52067 2.1693065
-16.203003 16.186043 -3.6274023
-17.793543 17.781124 3.0886567
-16.291056 16.28537 -2.8283436
-18.032717 18.032717 4.0391378
-16.467838 16.467838 -2.0375268
-18.347816 18.354221 5.0446081
-16.611031 16.622633 -1.2315698
-18.635511 18.655037 6.0876255
-16.725807 16.749178 -0.41316828
-18.949339 18.982441 7.1868873
-15.529139 15.599768 -5.8979683
-15.188683 15.263091 0.37585503
-15.622294 15.704308 -5.114037
-17.085993 17.175692 1.2696702
-15.81618 15.904762 -4.3599854
-17.278547 17.381386 2.1442056
-15.984835 16.085587 -3.5917354
-17.554775 17.671591 3.0584331
-16.046619 16.159039 -2.7961702
-17.735485 17.865973 3.9872017
-16.227701 16.347095 -2.0152152
-18.050861 18.190016 4.9812598
-16.392456 16.524595 -1.2198465
-18.292576 18.446468 5.9976449
-16.515078 16.659832 -0.40946835
-18.714315 18.878345 7.1227002
-15.298033 15.475277 -5.8306756
-15.086117 15.266233 0.37463334
-15.42769 15.617335 -5.0681472
-16.821007 17.027779 1.2543882
-15.608823 15.806212 -4.3180075
-17.030209 17.251595 2.1208479
-15.753762 15.964126 -3.5523138
-17.225317 17.461426 3.0116353
-15.834006 16.056648 -2.7688715
-17.481638 17.733639 3.9440258
-15.991505 16.222025 -1.9929032
-17.769529 18.031973 4.9209638
-16.166479 16.410975 -1.2072859
-18.042114 18.321371 5.9364581
-16.254814 16.512169 -0.40444207
-18.377253 18.668213 7.0191727
-15.122122 15.404509 -5.7840881
-15.015928 15.301674 0.3742145
-15.203861 15.498592 -5.0123596
-16.585081 16.912493 1.2414088
-15.388602 15.692393 -4.2722135
-16.780201 17.117439 2.0971415
-15.523734 15.84125 -3.5128922
-17.00312 17.356955 2.9833615
-15.613973 15.944464 -2.7401104
-17.198835 17.562872 3.8933411
-15.775894 16.115438 -1.9730318
-17.497763 17.880608 4.862958
-15.941495 16.295979 -1.1947252
-17.757328 18.158529 5.863574
-16.023741 16.391495 -0.40011388
-18.12508 18.547537 6.9487739
-14.906436 15.291203 -5.7219715
-14.955446 15.346835 0.37403998
-14.99193 15.389647 -4.9601707
-16.32543 16.758524 1.2261268
-15.191284 15.599735 -4.2325253
-16.514662 16.964617 2.0713434
-15.338843 15.762267 -3.4834826
-16.751411 17.219841 2.9497256
-15.405988 15.842324 -2.713299
-16.944334 17.430326 3.8501651
-15.544559 15.990404 -1.9510684
-17.246426 17.74728 4.8102946
-15.689681 16.150965 -1.1800711
-17.422312 17.940798 5.7735939
-15.810425 16.286629 -0.39620453
-17.839586 18.383327 6.8638811
-14.713192 15.193444 -5.6671019
-14.887782 15.379104 0.37362111
-14.794455 15.288035 -4.9115815
-16.097542 16.634598 1.2131475
-14.986588 15.491987 -4.189784
-16.308731 16.864607 2.0525177
-15.118989 15.639775 -3.4453127
-16.487299 17.061174 2.9131649
-15.193379 15.727711 -2.6850255
-16.716562 17.304462 3.8107436
-15.336436 15.881345 -1.9315456
-16.988401 17.59815 4.7545786
-15.48625 16.047688 -1.1687666
-17.173306 17.802122 5.7106075
-15.600863 16.177753 -0.39229518
-17.513056 18.167 6.7613888
-14.504736 15.083185 -5.6070557
-14.807677 15.403587 0.37295792
-14.605971 15.199074 -4.866591
-15.86224 16.506355 1.1997495
-14.761047 15.365813 -4.1417003
-16.053799 16.717369 2.0277655
-14.900146 15.521451 -3.4077685
-16.270954 16.955341 2.8853786
-14.967984 15.603017 -2.6548018
-16.450932 17.148882 3.7638133
-15.126456 15.773723 -1.9120227
-16.7421 17.4646 4.7026787
-15.272604 15.937256 -1.156834
-16.922329 17.664948 5.6476212
-15.361732 16.041468 -0.38768774
-17.249149 18.018696 6.683743
-14.313241 14.988422 -5.5532212
-14.713775 15.413236 0.37194568
-14.418291 15.108984 -4.8216009
-15.641819 16.391123 1.1873982
-14.582648 15.286555 -4.1065912
-15.816598 16.585863 2.005105
-14.704122 15.424668 -3.3752301
-15.998034 16.787851 2.8473554
-14.77103 15.50569 -2.6294529
-16.219296 17.025988 3.7243917
-14.92566 15.673488 -1.8935456
-16.486109 17.318171 4.6477256
-15.059919 15.825531 -1.1449014
-16.720877 17.57707 5.6008315
-15.145793 15.926899 -0.3836388
-17.016237 17.893808 6.6164498
-14.127903 14.898115 -5.5014577
-14.622738 15.425319 0.37100327
-14.207292 14.99231 -4.7685122
-15.414156 16.265858 1.1744188
-14.369879 15.169183 -4.0615602
-15.596951 16.470264 1.9845363
-14.489945 15.306625 -3.3383114
-15.794705 16.690758 2.8215191
-14.585854 15.418716 -2.6060541
-15.999579 16.913166 3.6874733
-14.723013 15.56915 -1.87472
-16.236742 17.175877 4.5942988
-14.850945 15.71542 -1.1331781
-16.410511 17.371841 5.5171494
-14.93908 15.819743 -0.37979928
-16.791405 17.787479 6.5543337
-13.938075 14.801073 -5.4476233
-14.509866 15.413657 0.36950234
-14.032007 14.911247 -4.7271214
-15.184742 16.141857 1.1614395
-14.190393 15.084832 -4.0256882
-15.394685 16.370756 1.9660592
-14.317363 15.230454 -3.3107791
-15.57322 16.572199 2.7922704
-14.349818 15.275661 -2.5733931
-15.77544 16.793262 3.6493032
-14.513094 15.454875 -1.8548485
-16.010069 17.054956 4.5469785
-14.659328 15.621522 -1.1227109
-16.208447 17.278364 5.46946
-14.738774 15.717175 -0.37609935
-16.468035 17.561228 6.4508057
-13.76757 14.722644 -5.4010358
-14.341266 15.341504 0.36657035
-13.84948 14.820602 -4.6830311
-14.989237 16.045893 1.150763
-13.98755 14.973592 -3.9829469
-15.182426 16.258389 1.9461877
-14.129315 15.13594 -3.2794921
-15.333797 16.43198 2.7596095
-14.188083 15.209533 -2.553894
-15.506314 16.628487 3.6011214
-14.328612 15.365556 -1.8381146
-15.7657 16.912561 4.4943151
-14.446761 15.5031 -1.110569
-15.930196 17.100986 5.3956761
-14.520289 15.592915 -0.37191078
-16.237707 17.443302 6.3855834
-13.568785 14.606863 -5.3420253
-14.51075 15.626362 0.37222493
-13.670328 14.72648 -4.6389408
-14.783787 15.93154 1.1390398
-13.81496 14.887497 -3.9478381
-14.96312 16.13044 1.9249218
-13.93667 15.029175 -3.2463281
-15.128076 16.319687 2.7323108
-13.991847 15.099245 -2.5275702
-15.314362 16.52643 3.568583
-14.131351 15.25513 -1.819289
-15.520114 16.760199 4.4401255
-14.262309 15.407286 -1.1003112
-15.701337 16.967779 5.3371887
-14.34629 15.508864 -0.36876935
-16.020159 17.318378 6.3213964
-13.399828 14.52634 -5.2954378
-14.37749 15.591654 0.37020046
-13.489401 14.63369 -4.5948501
-14.58462 15.827358 1.1279445
-13.629869 14.791254 -3.9096763
-14.752836 16.015516 1.9050503
-13.742285 14.923698 -3.2131639
-14.912375 16.200054 2.7035496
-13.80195 14.998997 -2.5027089
-15.111928 16.428343 3.535419
-13.932339 15.145998 -1.8004633
-15.304708 16.643744 4.3950944
-14.078683 15.315817 -1.0902627
-15.491697 16.858902 5.2858996
-14.151378 15.405689 -0.36513925
-15.760582 17.163538 6.2437506
-13.229078 14.447126 -5.2488503
-14.193329 15.505591 0.3669194
-13.317276 14.553642 -4.554359
-14.367444 15.70681 1.1155932
-13.461607 14.716529 -3.8768573
-14.543454 15.904801 1.8855274
-13.572877 14.848576 -3.1862571
-14.713636 16.102196 2.6782007
-13.618358 14.908778 -2.47931
-14.891955 16.303057 3.4972489
-13.747759 15.055717 -1.7837294
-15.098009 16.540226 4.3531165
-13.855519 15.184371 -1.0772834
-15.277461 16.748558 5.2337112
-13.951997 15.300825 -0.36143935
-15.544375 17.047148 6.1816339
-13.048601 14.350286 -5.1970863
-13.988472 15.38931 0.36301005
-13.143205 14.464466 -4.5120683
-14.175554 15.606069 1.1049167
-13.270232 14.609386 -3.8364058
-14.33516 15.787316 1.8656558
-13.396162 14.758372 -3.1568475
-14.491931 15.971166 2.6479771
-13.4382 14.815073 -2.4559109
-14.675528 16.184851 3.4603302
-13.571994 14.967824 -1.7676928
-14.863502 16.397909 4.3019795
-13.681734 15.099439 -1.0678629
-15.043599 16.608246 5.1734242
-13.788442 15.227883 -0.35857713
-15.292513 16.894897 6.1060591
-12.89217 14.273054 -5.153605
-13.816751 15.302035 0.35986862
-12.977651 14.377777 -4.4715772
-13.971195 15.483945 1.0929841
-13.108605 14.527958 -3.8035865
-14.165297 15.704573 1.8503164
-13.214868 14.656008 -3.1255605
-14.32459 15.892326 2.6270156
-13.274721 14.732726 -2.4349494
-14.463288 16.051838 3.4221604
-13.410276 14.888394 -1.7530506
-14.661911 16.283701 4.2592382
-13.524693 15.025967 -1.0594891
-14.83724 16.489996 5.1212358
-13.596117 15.115927 -0.35487723
-15.079165 16.764753 6.041872
-12.723598 14.185661 -5.1059823
-13.429517 14.977956 0.35114241
-12.820728 14.303995 -4.4346852
-13.799775 15.401718 1.083773
-12.937284 14.439105 -3.7684777
-13.956193 15.581765 1.8300962
-13.055578 14.581369 -3.0999053
-14.118103 15.773609 2.5992293
-13.112027 14.654706 -2.4144754
-14.2674 15.951614 3.389622
-13.222743 14.78364 -1.7352709
-14.466272 16.179646 4.2187867
-13.347049 14.933106 -1.04965
-14.631573 16.376024 5.0699468
-13.423382 15.029065 -0.3517358
-14.88638 16.67292 5.9890728
-12.560934 14.103038 -5.06043
-13.256146 14.888833 0.34796607
-12.648933 14.211827 -4.3923941
-13.6291 15.318484 1.0745618
-12.779794 14.363903 -3.737185
-13.774604 15.487467 1.8133624
-12.886472 14.493989 -3.0717471
-13.923171 15.665517 2.5733931
-12.957952 14.584635 -2.3954637
-14.08847 15.857073 3.3595865
-13.051983 14.695635 -1.7195828
-14.266326 16.06855 4.1768088
-13.191431 14.863091 -1.0414855
-14.424296 16.257902 5.0177584
-13.232845 14.920239 -0.3481057
-14.666932 16.537195 5.9228148
-12.401564 14.022348 -5.015913
-13.167007 14.893066 0.34698874
-12.506331 14.15076 -4.3600016
-13.424794 15.195333 1.0626292
-12.622988 14.287779 -3.7058923
-13.58857 15.386119 1.7959312
-12.723366 14.41153 -3.0448403
-13.726541 15.55328 2.5470693
-12.767755 14.471988 -2.3696275
-13.891891 15.746175 3.3257968
-12.889906 14.615585 -1.7049407
-14.069931 15.959204 4.1355944
-12.999491 14.750216 -1.0303903
-14.230907 16.153158 4.9700685
-13.064379 14.83428 -0.34503406
-14.453347 16.411419 5.859663
-12.250559 13.949428 -4.9745021
-13.09779 14.919401 0.34653497
-12.333461 14.053718 -4.3168106
-13.250493 15.103973 1.0529995
-12.456512 14.19893 -3.6715467
-13.403412 15.283662 1.7785001
-12.563598 14.331082 -3.0185595
-13.546565 15.457779 2.5236704
-12.609898 14.394029 -2.3496408
-13.709149 15.654322 3.2957613
-12.725924 14.531588 -1.6899499
-13.874475 15.848684 4.0943794
-12.821653 14.651216 -1.0203418
-14.038426 16.047264 4.922379
-12.894043 14.744316 -0.34189263
-14.240822 16.284357 5.7965112
-12.112913 13.890185 -4.9382672
-12.937881 14.841427 0.34367278
-12.187028 13.985027 -4.282618
-13.074371 15.008573 1.0431603
-12.29855 14.117976 -3.6394908
-13.213902 15.174092 1.7603717
-12.401954 14.246716 -2.9916527
-13.362213 15.355222 2.4992964
-12.444924 14.306159 -2.328192
-13.501468 15.526189 3.2588427
-12.557457 14.440611 -1.6742618
-13.697994 15.75774 4.0585074
-12.655149 14.563215 -1.0111307
-13.821301 15.910801 4.8656912
-12.737607 14.668446 -0.33910027
-14.051869 16.187637 5.7437124
-11.963184 13.81555 -4.8968563
-12.776061 14.759496 0.34074077
-12.033574 13.906645 -4.2457261
-12.909532 14.924212 1.0341585
-12.138737 14.033125 -3.6066716
-13.064419 15.1086 1.7474726
-12.248804 14.170364 -2.9666233
-13.191722 15.266589 2.47736
-12.288506 14.226328 -2.3082054
-13.318088 15.42371 3.227556
-12.39499 14.354668 -1.659271
-13.506927 15.647924 4.0180559
-12.492024 14.477257 -1.0021288
-13.646031 15.82024 4.8234005
-12.574024 14.582576 -0.33609843
-13.866911 16.081987 5.689878
-11.801531 13.72539 -4.8502688
-12.59933 14.65842 0.33738992
-11.883358 13.830319 -4.209734
-12.750648 14.844946 1.0255754
-11.992459 13.962225 -3.5776687
-12.874022 14.993878 1.7289957
-12.09634 14.093119 -2.9415936
-13.027184 15.182981 2.4563985
-12.127627 14.139554 -2.2872438
-13.15359 15.341138 3.2006493
-12.246245 14.282894 -1.6460234
-13.327014 15.548894 3.9806573
-12.347849 14.411572 -0.99459249
-13.453816 15.707931 4.7748113
-12.411197 14.495746 -0.33309662
-13.66997 15.965939 5.6319022
-11.665742 13.663657 -4.8140345
-12.43904 14.574543 0.3344579
-11.728764 13.747187 -4.1719422
-12.584681 14.7504 1.0161549
-11.849374 13.893463 -3.5494289
-12.705268 14.902271 1.7133076
-11.936878 14.005961 -2.9146869
-12.858243 15.092367 2.4344621
-11.97008 14.054854 -2.2667699
-12.972003 15.231277 3.1687365
-12.090405 14.201156 -1.6317298
-13.14796 15.4488 3.9432588
-12.186167 14.323762 -0.98559076
-13.285278 15.621194 4.7343197
-12.262083 14.423193 -0.33044386
-13.47401 15.848713 5.5739269
-11.530529 13.601145 -4.7777996
-12.274319 14.483626 0.3313863
-11.590011 13.680986 -4.1395493
-10.328526 12.19623 0.83758461
-11.704378 13.820877 -3.520426
-12.555335 14.83096 1.7000599
-11.790934 13.932944 -2.890909
-12.664454 14.97045 2.4076507
-11.833783 13.993481 -2.2501955
-12.808967 15.151999 3.1424556
-11.930141 14.112419 -1.616739
-12.969768 15.347648 3.9058602
-12.020095 14.228897 -0.97617024
-13.09488 15.506674 4.6857305
-12.100729 14.334496 -0.32744205
-13.303699 15.765115 5.5273395
-11.385942 13.526032 -4.7374239
-12.12326 14.407039 0.32866371
-11.454373 13.616969 -4.1080561
-10.24174 12.17539 0.83381647
-11.562561 13.750455 -3.4921863
-12.398364 14.749635 1.6857663
-11.658354 13.874203 -2.8702595
-12.520191 14.905126 2.3901017
-11.677637 13.907004 -2.2297215
-12.631536 15.048345 3.1117945
-11.801389 14.059363 -1.6059318
-12.800015 15.254464 3.8707514
-11.888206 14.172835 -0.96947128
-12.927982 15.417896 4.6452394
-11.932437 14.235656 -0.32423082
-13.114838 15.646285 5.4703994
-11.234589 13.441184 -4.6939421
-11.969041 14.324971 0.32583642
-11.316826 13.549182 -4.0756631
-10.195336 12.206468 0.83350241
-11.406281 13.661129 -3.459367
-12.226794 14.64904 1.6693811
-11.511143 13.796506 -2.8458557
-12.35111 14.80849 2.3676777
-11.545121 13.847054 -2.2136347
-12.477754 14.970951 3.0867648
-11.639986 13.965788 -1.5905923
-12.626046 15.154252 3.834116
-11.741518 14.09761 -0.9615162
-12.749396 15.313168 4.6002493
-11.80592 14.185001 -0.32213652
-12.939032 15.546453 5.4196706
-11.11111 13.38815 -4.6618485
-11.810436 14.235847 0.32286951
-11.169941 13.468602 -4.0396709
-10.153079 12.246829 0.8337118
-11.270815 13.595062 -3.4326539
-12.063707 14.556634 1.6540416
-11.365877 13.719473 -2.8217649
-12.198052 14.729202 2.3481786
-11.403041 13.774116 -2.1955981
-12.324745 14.887474 3.0611095
-11.494625 13.889679 -1.5773447
-12.452934 15.053012 3.7974806
-11.575136 13.996909 -0.95188636
-12.584118 15.222401 4.5597577
-11.651877 14.099726 -0.31927434
-12.76877 15.456751 5.3720479
-10.966024 13.307583 -4.6204376
-11.669129 14.165857 0.32035637
-11.041101 13.408223 -4.0099773
-10.102254 12.268096 0.83287442
-11.135949 13.528218 -3.4059405
-11.911544 14.475577 1.6400968
-11.227566 13.649222 -2.7992382
-12.038135 14.63983 2.3272169
-11.274217 13.715692 -2.1799989
-12.15472 14.792134 3.0323257
-11.354999 13.818884 -1.5647942
-12.298131 14.971989 3.7661879
-11.437486 13.929179 -0.94455934
-12.434465 15.148745 4.5246654
-11.488428 14.001182 -0.3161329
-12.602024 15.363811 5.3244252
-10.846106 13.256071 -4.5893793
-11.523392 14.088865 0.3177036
-10.907885 13.341076 -3.9784844
-10.05684 12.300192 0.83266509
-11.009144 13.469721 -3.3815169
-11.765137 14.399808 1.6268491
-11.084886 13.572056 -2.7754602
-11.873968 14.54337 2.3052804
-11.118326 13.622704 -2.1590374
-12.000683 14.703808 3.0060446
-11.221045 13.753459 -1.552941
-12.146527 14.893113 3.7356584
-11.292878 13.851372 -0.93660426
-12.248549 15.028913 4.4760761
-11.361176 13.945079 -0.31396878
-12.421443 15.251922 5.2705913
-10.716935 13.19189 -4.5541801
-11.380857 14.014133 0.31512064
-10.775272 13.273164 -3.9469912
-10.015102 12.336773 0.83276975
-10.86309 13.386112 -3.3509877
-11.626936 14.332479 1.6146473
-10.957812 13.512472 -2.7554367
-11.735625 14.476786 2.2882187
-10.978221 13.547302 -2.1410005
-11.832377 14.601345 2.976635
-11.082672 13.681077 -1.5403906
-11.995625 14.813363 3.7051291
-11.159007 13.785145 -0.92948657
-12.085687 14.935237 4.435585
-11.219364 13.869603 -0.31138584
-12.263664 15.166 5.2260742
-10.588346 13.126969 -4.5189805
-11.244005 13.944806 0.31267732
-10.638377 13.198421 -3.9136984
-9.9193354 12.306347 0.82837349
-10.732536 13.319995 -3.3250375
-11.466854 14.236431 1.5993079
-10.828815 13.449091 -2.7347872
-11.560554 14.363022 2.263845
-10.851223 13.486557 -2.1254013
-11.674842 14.5102 2.9497283
-10.934952 13.595477 -1.5264456
-11.847889 14.735803 3.6753628
-11.015727 13.705699 -0.9215315
-11.930952 14.849724 4.3977933
-11.080723 13.796427 -0.3088727
-12.114107 15.083076 5.1836276
-10.453097 13.052266 -4.4806752
-11.104029 13.870013 0.31012926
-10.519183 13.144185 -3.8867042
-9.8476152 12.305031 0.82596606
-10.609936 13.262329 -3.3013773
-11.327495 14.164339 1.5867574
-10.690525 13.372631 -2.7116351
-11.443426 14.319548 2.2506831
-10.737174 13.440601 -2.1122394
-11.545213 14.452089 2.9297047
-10.802885 13.527697 -1.5145925
-11.686145 14.63898 3.6410172
-10.898055 13.656646 -0.91566992
-11.75752 14.738939 4.3528028
-10.945225 13.725579 -0.30642936
-11.950367 14.99142 5.1370406
-10.337737 13.000974 -4.4506521
-10.962224 13.791283 0.30751139
-10.3908 13.077074 -3.856111
-9.8024483 12.341042 0.82596606
-10.478102 13.191672 -3.2746639
-11.181347 14.082087 1.5731611
-10.562727 13.30775 -2.6909857
-11.302067 14.244331 2.2326465
-10.59644 13.359798 -2.0937154
-11.401402 14.374679 2.9059267
-10.686279 13.477896 -1.5048311
-11.52766 14.544288 3.6074347
-10.751092 13.569367 -0.90729612
-11.601946 14.648515 4.3141112
-10.815322 13.660227 -0.30412564
-11.802256 14.906768 5.094594
-10.213286 12.936905 -4.4164882
-10.827299 13.719582 0.30506808
-10.270255 13.018408 -3.828217
-9.7370491 12.346954 0.82408196
-10.356616 13.13259 -3.2510037
-11.048246 14.014634 1.561308
-10.433068 13.239037 -2.6697106
-11.151546 14.155829 2.2126598
-10.466228 13.290654 -2.077141
-11.253335 14.295303 2.8815229
-10.555366 13.408661 -1.4929779
-11.391834 14.476439 3.5807216
-10.63204 13.515766 -0.90122515
-11.456785 14.569439 4.2790189
-10.693424 13.603569 -0.30203134
-11.642503 14.816254 5.0490417
-10.103441 12.880765 -4.3864651
-10.707644 13.655964 0.30290398
-10.149962 12.949381 -3.7985234
-9.700675 12.380628 0.82429129
